5.69921875 0.407087057829 -2.51037025452 
5.69921875 0.356201171875 -2.51037025452 
5.69921875 0.305315285921 -2.51037025452 
5.69921875 0.254429399967 -2.51037025452 
5.69921875 0.203543528914 -2.51037025452 
5.69921875 0.152657642961 -2.51037025452 
5.69921875 0.101771764457 -2.51037025452 
5.69921875 0.0508858822286 -2.51037025452 
5.69921875 0.0 -2.51037025452 
5.69921875 -0.0508858822286 -2.51037025452 
5.69921875 -0.101771764457 -2.51037025452 
5.69921875 -0.152657642961 -2.51037025452 
5.69921875 -0.203543528914 -2.51037025452 
5.69921875 -0.254429399967 -2.51037025452 
5.69921875 -0.305315285921 -2.51037025452 
5.69921875 -0.356201171875 -2.51037025452 
5.69921875 -0.407087057829 -2.51037025452 
5.69921875 -0.457972943783 -2.51037025452 
5.69921875 -0.508858799934 -2.51037025452 
5.69921875 -0.559744715691 -2.51037025452 
5.69921875 -0.610630571842 -2.51037025452 
5.6953125 -0.661063075066 -2.50864958763 
5.6953125 -0.7119140625 -2.50864958763 
5.6953125 -0.762765049934 -2.50864958763 
5.6953125 -0.813616096973 -2.50864958763 
5.6953125 -0.864467084408 -2.50864958763 
5.6953125 -0.915318071842 -2.50864958763 
5.6953125 -0.966169059277 -2.50864958763 
5.6953125 -1.01702010632 -2.50864958763 
5.6953125 -1.06787109375 -2.50864958763 
5.6953125 -1.11872208118 -2.50864958763 
5.6953125 -1.16957306862 -2.50864958763 
5.6953125 -1.22042405605 -2.50864958763 
5.6953125 -1.2712751627 -2.50864958763 
5.6953125 -1.32212615013 -2.50864958763 
5.6953125 -1.37297713757 -2.50864958763 
5.6953125 -1.423828125 -2.50864958763 
5.6953125 -1.47467911243 -2.50864958763 
5.6953125 -1.52553009987 -2.50864958763 
5.6953125 -1.5763810873 -2.50864958763 
5.6953125 -1.62723219395 -2.50864958763 
5.6953125 -1.67808318138 -2.50864958763 
5.6953125 -1.72893416882 -2.50864958763 
5.6953125 -1.77978515625 -2.50864958763 
5.69140625 -1.82938063145 -2.50692892075 
5.69140625 -1.88019669056 -2.50692892075 
5.69140625 -1.93101286888 -2.50692892075 
5.69140625 -1.98182892799 -2.50692892075 
5.69140625 -2.03264498711 -2.50692892075 
5.69140625 -2.08346128464 -2.50692892075 
5.69140625 -2.13427734375 -2.50692892075 
5.69140625 -2.18509340286 -2.50692892075 
5.69140625 -2.23590970039 -2.50692892075 
5.69140625 -2.28672575951 -2.50692892075 
5.69140625 -2.33754181862 -2.50692892075 
5.69140625 -2.38835787773 -2.50692892075 
5.69140625 -2.43917417526 -2.50692892075 
5.69140625 -2.48999023438 -2.50692892075 
5.69140625 -2.54080629349 -2.50692892075 
5.69140625 -2.59162259102 -2.50692892075 
5.69140625 -2.64243865013 -2.50692892075 
5.69140625 -2.69325470924 -2.50692892075 
5.69140625 -2.74407076836 -2.50692892075 
5.69140625 -2.79488706589 -2.50692892075 
5.69140625 -2.845703125 -2.50692892075 
5.69140625 -2.89651918411 -2.50692892075 
5.69140625 -2.94733548164 -2.50692892075 
5.6875 -2.99609375 -2.50520825386 
5.6875 -3.046875 -2.50520825386 
5.6875 -3.09765625 -2.50520825386 
5.6875 -3.1484375 -2.50520825386 
5.6875 -3.19921875 -2.50520825386 
5.6875 -3.25 -2.50520825386 
5.6875 -3.30078125 -2.50520825386 
5.6875 -3.3515625 -2.50520825386 
5.6875 -3.40234375 -2.50520825386 
5.6875 -3.453125 -2.50520825386 
5.6875 -3.50390625 -2.50520825386 
5.6875 -3.5546875 -2.50520825386 
5.6875 -3.60546875 -2.50520825386 
5.6875 -3.65625 -2.50520825386 
5.6875 -3.70703125 -2.50520825386 
5.6875 -3.7578125 -2.50520825386 
5.6875 -3.80859375 -2.50520825386 
5.6875 -3.859375 -2.50520825386 
5.6875 -3.91015625 -2.50520825386 
5.6875 -3.9609375 -2.50520825386 
5.6875 -4.01171875 -2.50520825386 
5.6875 -4.0625 -2.50520825386 
5.6875 -4.11328125 -2.50520825386 
5.68359375 -4.16120243073 -2.50348782539 
5.68359375 -4.21194887161 -2.50348782539 
5.68359375 -4.2626953125 -2.50348782539 
5.68359375 -4.31344175339 -2.50348782539 
5.68359375 -4.36418819427 -2.50348782539 
5.68359375 -4.41493463516 -2.50348782539 
5.68359375 -4.46568059921 -2.50348782539 
5.68359375 -4.5164270401 -2.50348782539 
5.68359375 -4.56717348099 -2.50348782539 
5.68359375 -4.61791992188 -2.50348782539 
5.68359375 -4.66866636276 -2.50348782539 
5.68359375 -4.71941280365 -2.50348782539 
5.68359375 -4.77015924454 -2.50348782539 
5.68359375 -4.82090520859 -2.50348782539 
5.68359375 -4.87165164948 -2.50348782539 
5.68359375 -4.92239809036 -2.50348782539 
5.68359375 -4.97314453125 -2.50348782539 
5.68359375 -5.02389097214 -2.50348782539 
5.68359375 -5.07463741302 -2.50348782539 
5.68359375 -5.12538385391 -2.50348782539 
5.68359375 -5.17612981796 -2.50348782539 
5.68359375 -5.22687625885 -2.50348782539 
5.68359375 -5.27762269974 -2.50348782539 
5.6796875 -5.32470703125 -2.50176715851 
5.6796875 -5.37541866302 -2.50176715851 
5.6796875 -5.42612981796 -2.50176715851 
5.6796875 -5.47684144974 -2.50176715851 
5.6796875 -5.52755308151 -2.50176715851 
5.6796875 -5.57826471329 -2.50176715851 
5.6796875 -5.62897586823 -2.50176715851 
5.60546875 5.60546875 -2.51912426949 
5.60546875 5.55541992188 -2.51912426949 
5.60546875 5.50537109375 -2.51912426949 
5.60546875 5.45532226562 -2.51912426949 
5.60546875 5.4052734375 -2.51912426949 
5.6015625 5.35149288177 -2.51736879349 
5.6015625 5.30147886276 -2.51736879349 
5.6015625 5.25146484375 -2.51736879349 
5.6015625 5.20145082474 -2.51736879349 
5.6015625 5.15143680573 -2.51736879349 
5.6015625 5.10142278671 -2.51736879349 
5.6015625 5.05140924454 -2.51736879349 
5.6015625 5.00139522552 -2.51736879349 
5.6015625 4.95138120651 -2.51736879349 
5.6015625 4.9013671875 -2.51736879349 
5.6015625 4.85135316849 -2.51736879349 
5.6015625 4.80133914948 -2.51736879349 
5.6015625 4.75132513046 -2.51736879349 
5.6015625 4.70131158829 -2.51736879349 
5.6015625 4.65129756927 -2.51736879349 
5.6015625 4.60128355026 -2.51736879349 
5.6015625 4.55126953125 -2.51736879349 
5.6015625 4.50125551224 -2.51736879349 
5.6015625 4.45124149323 -2.51736879349 
5.6015625 4.40122747421 -2.51736879349 
5.6015625 4.35121393204 -2.51736879349 
5.6015625 4.30119991302 -2.51736879349 
5.6015625 4.25118589401 -2.51736879349 
5.6015625 4.201171875 -2.51736879349 
5.59765625 4.1482629776 -2.51561331749 
5.59765625 4.09828424454 -2.51561331749 
5.59765625 4.04830503464 -2.51561331749 
5.59765625 3.99832582474 -2.51561331749 
5.59765625 3.94834685326 -2.51561331749 
5.59765625 3.89836764336 -2.51561331749 
5.59765625 3.84838867188 -2.51561331749 
5.59765625 3.79840970039 -2.51561331749 
5.59765625 3.74843049049 -2.51561331749 
5.59765625 3.69845151901 -2.51561331749 
5.59765625 3.64847230911 -2.51561331749 
5.59765625 3.59849333763 -2.51561331749 
5.59765625 3.54851412773 -2.51561331749 
5.59765625 3.49853515625 -2.51561331749 
5.59765625 3.44855618477 -2.51561331749 
5.59765625 3.39857697487 -2.51561331749 
5.59765625 3.34859800339 -2.51561331749 
5.59765625 3.29861879349 -2.51561331749 
5.59765625 3.24863982201 -2.51561331749 
5.59765625 3.19866061211 -2.51561331749 
5.59765625 3.14868164062 -2.51561331749 
5.59765625 3.09870266914 -2.51561331749 
5.59765625 3.04872345924 -2.51561331749 
5.59765625 2.99874448776 -2.51561331749 
5.59375 2.94670748711 -2.51385784149 
5.59375 2.89676332474 -2.51385784149 
5.59375 2.84681916237 -2.51385784149 
5.59375 2.796875 -2.51385784149 
5.59375 2.74693083763 -2.51385784149 
5.59375 2.69698667526 -2.51385784149 
5.59375 2.64704251289 -2.51385784149 
5.59375 2.59709811211 -2.51385784149 
5.59375 2.54715394974 -2.51385784149 
5.59375 2.49720978737 -2.51385784149 
5.59375 2.447265625 -2.51385784149 
5.59375 2.39732146263 -2.51385784149 
5.59375 2.34737730026 -2.51385784149 
5.59375 2.29743313789 -2.51385784149 
5.59375 2.24748873711 -2.51385784149 
5.59375 2.19754457474 -2.51385784149 
5.59375 2.14760041237 -2.51385784149 
5.59375 2.09765625 -2.51385784149 
5.59375 2.04771208763 -2.51385784149 
5.59375 1.99776780605 -2.51385784149 
5.59375 1.94782364368 -2.51385784149 
5.59375 1.89787948132 -2.51385784149 
5.59375 1.84793531895 -2.51385784149 
5.58984375 1.79673552513 -2.51210236549 
5.58984375 1.74682617188 -2.51210236549 
5.58984375 1.69691681862 -2.51210236549 
5.58984375 1.64700758457 -2.51210236549 
5.58984375 1.59709823132 -2.51210236549 
5.58984375 1.54718887806 -2.51210236549 
5.58984375 1.4972795248 -2.51210236549 
5.58984375 1.44737029076 -2.51210236549 
5.58984375 1.3974609375 -2.51210236549 
5.58984375 1.34755158424 -2.51210236549 
5.58984375 1.2976423502 -2.51210236549 
5.58984375 1.24773299694 -2.51210236549 
5.58984375 1.19782364368 -2.51210236549 
5.58984375 1.14791429043 -2.51210236549 
5.58984375 1.09800505638 -2.51210236549 
5.58984375 1.04809570312 -2.51210236549 
5.58984375 0.998186409473 -2.51210236549 
5.58984375 0.948277056217 -2.51210236549 
5.58984375 0.898367762566 -2.51210236549 
5.58984375 0.848458409309 -2.51210236549 
5.58984375 0.798549115658 -2.51210236549 
5.58984375 0.748639762402 -2.51210236549 
5.58984375 0.69873046875 -2.51210236549 
5.58984375 0.648821175098 -2.51210236549 
5.5859375 0.598493278027 -2.5103468895 
5.5859375 0.548618853092 -2.5103468895 
5.5859375 0.498744428158 -2.5103468895 
5.5859375 0.448869973421 -2.5103468895 
5.5859375 0.398995548487 -2.5103468895 
5.5859375 0.34912109375 -2.5103468895 
5.5859375 0.299246639013 -2.5103468895 
5.5859375 0.249372214079 -2.5103468895 
5.5859375 0.199497774243 -2.5103468895 
5.5859375 0.149623319507 -2.5103468895 
5.5859375 0.0997488871217 -2.5103468895 
5.5859375 0.0498744435608 -2.5103468895 
5.5859375 0.0 -2.5103468895 
5.5859375 -0.0498744435608 -2.5103468895 
5.5859375 -0.0997488871217 -2.5103468895 
5.5859375 -0.149623319507 -2.5103468895 
5.5859375 -0.199497774243 -2.5103468895 
5.5859375 -0.249372214079 -2.5103468895 
5.5859375 -0.299246639013 -2.5103468895 
5.5859375 -0.34912109375 -2.5103468895 
5.5859375 -0.398995548487 -2.5103468895 
5.5859375 -0.448869973421 -2.5103468895 
5.5859375 -0.498744428158 -2.5103468895 
5.5859375 -0.548618853092 -2.5103468895 
5.58203125 -0.598074793816 -2.5085914135 
5.58203125 -0.647914350033 -2.5085914135 
5.58203125 -0.69775390625 -2.5085914135 
5.58203125 -0.747593462467 -2.5085914135 
5.58203125 -0.797433018684 -2.5085914135 
5.58203125 -0.847272574902 -2.5085914135 
5.58203125 -0.897112190723 -2.5085914135 
5.58203125 -0.946951746941 -2.5085914135 
5.58203125 -0.996791303158 -2.5085914135 
5.58203125 -1.04663085938 -2.5085914135 
5.58203125 -1.0964704752 -2.5085914135 
5.58203125 -1.14630997181 -2.5085914135 
5.58203125 -1.19614958763 -2.5085914135 
5.58203125 -1.24598908424 -2.5085914135 
5.58203125 -1.29582870007 -2.5085914135 
5.58203125 -1.34566819668 -2.5085914135 
5.58203125 -1.3955078125 -2.5085914135 
5.58203125 -1.44534742832 -2.5085914135 
5.58203125 -1.49518692493 -2.5085914135 
5.58203125 -1.54502654076 -2.5085914135 
5.58203125 -1.59486603737 -2.5085914135 
5.58203125 -1.64470565319 -2.5085914135 
5.58203125 -1.6945451498 -2.5085914135 
5.58203125 -1.74438476562 -2.5085914135 
5.578125 -1.79296875 -2.5068359375 
5.578125 -1.8427734375 -2.5068359375 
5.578125 -1.892578125 -2.5068359375 
5.578125 -1.9423828125 -2.5068359375 
5.578125 -1.9921875 -2.5068359375 
5.578125 -2.0419921875 -2.5068359375 
5.578125 -2.091796875 -2.5068359375 
5.578125 -2.1416015625 -2.5068359375 
5.578125 -2.19140625 -2.5068359375 
5.578125 -2.2412109375 -2.5068359375 
5.578125 -2.291015625 -2.5068359375 
5.578125 -2.3408203125 -2.5068359375 
5.578125 -2.390625 -2.5068359375 
5.578125 -2.4404296875 -2.5068359375 
5.578125 -2.490234375 -2.5068359375 
5.578125 -2.5400390625 -2.5068359375 
5.578125 -2.58984375 -2.5068359375 
5.578125 -2.6396484375 -2.5068359375 
5.578125 -2.689453125 -2.5068359375 
5.578125 -2.7392578125 -2.5068359375 
5.578125 -2.7890625 -2.5068359375 
5.578125 -2.8388671875 -2.5068359375 
5.578125 -2.888671875 -2.5068359375 
5.578125 -2.9384765625 -2.5068359375 
5.57421875 -2.98618865013 -2.5050804615 
5.57421875 -3.03595852852 -2.5050804615 
5.57421875 -3.08572816849 -2.5050804615 
5.57421875 -3.13549804688 -2.5050804615 
5.57421875 -3.18526792526 -2.5050804615 
5.57421875 -3.23503756523 -2.5050804615 
5.57421875 -3.28480744362 -2.5050804615 
5.57421875 -3.33457732201 -2.5050804615 
5.57421875 -3.38434720039 -2.5050804615 
5.57421875 -3.43411684036 -2.5050804615 
5.57421875 -3.48388671875 -2.5050804615 
5.57421875 -3.53365659714 -2.5050804615 
5.57421875 -3.58342623711 -2.5050804615 
5.57421875 -3.63319611549 -2.5050804615 
5.57421875 -3.68296599388 -2.5050804615 
5.57421875 -3.73273587227 -2.5050804615 
5.57421875 -3.78250551224 -2.5050804615 
5.57421875 -3.83227539062 -2.5050804615 
5.57421875 -3.88204526901 -2.5050804615 
5.57421875 -3.93181490898 -2.5050804615 
5.57421875 -3.98158478737 -2.5050804615 
5.57421875 -4.03135442734 -2.5050804615 
5.57421875 -4.08112430573 -2.5050804615 
5.57421875 -4.13089418411 -2.5050804615 
5.5703125 -4.177734375 -2.5033249855 
5.5703125 -4.22746944427 -2.5033249855 
5.5703125 -4.27720403671 -2.5033249855 
5.5703125 -4.32693910599 -2.5033249855 
5.5703125 -4.37667417526 -2.5033249855 
5.5703125 -4.42640924454 -2.5033249855 
5.5703125 -4.47614383698 -2.5033249855 
5.5703125 -4.52587890625 -2.5033249855 
5.5703125 -4.57561397552 -2.5033249855 
5.5703125 -4.62534856796 -2.5033249855 
5.5703125 -4.67508363724 -2.5033249855 
5.5703125 -4.72481870651 -2.5033249855 
5.5703125 -4.77455377579 -2.5033249855 
5.5703125 -4.82428836823 -2.5033249855 
5.5703125 -4.8740234375 -2.5033249855 
5.5703125 -4.92375850677 -2.5033249855 
5.5703125 -4.97349309921 -2.5033249855 
5.5703125 -5.02322816849 -2.5033249855 
5.5703125 -5.07296323776 -2.5033249855 
5.5703125 -5.12269830704 -2.5033249855 
5.5703125 -5.17243289948 -2.5033249855 
5.5703125 -5.22216796875 -2.5033249855 
5.5703125 -5.27190303802 -2.5033249855 
5.5703125 -5.32163763046 -2.5033249855 
5.56640625 -5.36760616302 -2.50156950951 
5.56640625 -5.41730594635 -2.50156950951 
5.56640625 -5.46700620651 -2.50156950951 
5.56640625 -5.51670598984 -2.50156950951 
5.49609375 5.49609375 -2.51904296875 
5.49609375 5.44702148438 -2.51904296875 
5.49609375 5.39794921875 -2.51904296875 
5.4921875 5.34507513046 -2.51725268364 
5.4921875 5.29603815079 -2.51725268364 
5.4921875 5.24700069427 -2.51725268364 
5.4921875 5.19796323776 -2.51725268364 
5.4921875 5.14892578125 -2.51725268364 
5.4921875 5.09988832474 -2.51725268364 
5.4921875 5.05085086823 -2.51725268364 
5.4921875 5.00181341171 -2.51725268364 
5.4921875 4.95277643204 -2.51725268364 
5.4921875 4.90373897552 -2.51725268364 
5.4921875 4.85470151901 -2.51725268364 
5.4921875 4.8056640625 -2.51725268364 
5.4921875 4.75662660599 -2.51725268364 
5.4921875 4.70758914948 -2.51725268364 
5.4921875 4.65855169296 -2.51725268364 
5.4921875 4.60951471329 -2.51725268364 
5.4921875 4.56047725677 -2.51725268364 
5.4921875 4.51143980026 -2.51725268364 
5.4921875 4.46240234375 -2.51725268364 
5.4921875 4.41336488724 -2.51725268364 
5.4921875 4.36432743073 -2.51725268364 
5.4921875 4.31528997421 -2.51725268364 
5.4921875 4.26625299454 -2.51725268364 
5.4921875 4.21721553802 -2.51725268364 
5.4921875 4.16817808151 -2.51725268364 
5.48828125 4.1162109375 -2.51546216011 
5.48828125 4.0672082901 -2.51546216011 
5.48828125 4.01820611954 -2.51546216011 
5.48828125 3.96920347214 -2.51546216011 
5.48828125 3.92020082474 -2.51546216011 
5.48828125 3.87119841576 -2.51546216011 
5.48828125 3.82219576836 -2.51546216011 
5.48828125 3.77319335938 -2.51546216011 
5.48828125 3.72419095039 -2.51546216011 
5.48828125 3.67518830299 -2.51546216011 
5.48828125 3.62618589401 -2.51546216011 
5.48828125 3.57718324661 -2.51546216011 
5.48828125 3.52818083763 -2.51546216011 
5.48828125 3.47917819023 -2.51546216011 
5.48828125 3.43017578125 -2.51546216011 
5.48828125 3.38117337227 -2.51546216011 
5.48828125 3.33217072487 -2.51546216011 
5.48828125 3.28316831589 -2.51546216011 
5.48828125 3.23416566849 -2.51546216011 
5.48828125 3.18516325951 -2.51546216011 
5.48828125 3.13616061211 -2.51546216011 
5.48828125 3.08715820312 -2.51546216011 
5.48828125 3.03815579414 -2.51546216011 
5.48828125 2.98915314674 -2.51546216011 
5.484375 2.93805813789 -2.513671875 
5.484375 2.88909029961 -2.513671875 
5.484375 2.84012269974 -2.513671875 
5.484375 2.79115509987 -2.513671875 
5.484375 2.7421875 -2.513671875 
5.484375 2.69321990013 -2.513671875 
5.484375 2.64425230026 -2.513671875 
5.484375 2.59528470039 -2.513671875 
5.484375 2.54631686211 -2.513671875 
5.484375 2.49734926224 -2.513671875 
5.484375 2.44838166237 -2.513671875 
5.484375 2.3994140625 -2.513671875 
5.484375 2.35044646263 -2.513671875 
5.484375 2.30147886276 -2.513671875 
5.484375 2.25251126289 -2.513671875 
5.484375 2.20354342461 -2.513671875 
5.484375 2.15457582474 -2.513671875 
5.484375 2.10560822487 -2.513671875 
5.484375 2.056640625 -2.513671875 
5.484375 2.00767302513 -2.513671875 
5.484375 1.95870530605 -2.513671875 
5.484375 1.90973770618 -2.513671875 
5.484375 1.86077010632 -2.513671875 
5.484375 1.81180250645 -2.513671875 
5.484375 1.76283478737 -2.513671875 
5.48046875 1.71264648438 -2.51188158989 
5.48046875 1.66371369362 -2.51188158989 
5.48046875 1.61478102207 -2.51188158989 
5.48046875 1.56584823132 -2.51188158989 
5.48046875 1.51691544056 -2.51188158989 
5.48046875 1.4679826498 -2.51188158989 
5.48046875 1.41904997826 -2.51188158989 
5.48046875 1.3701171875 -2.51188158989 
5.48046875 1.32118439674 -2.51188158989 
5.48046875 1.2722517252 -2.51188158989 
5.48046875 1.22331893444 -2.51188158989 
5.48046875 1.17438614368 -2.51188158989 
5.48046875 1.12545335293 -2.51188158989 
5.48046875 1.07652068138 -2.51188158989 
5.48046875 1.02758789062 -2.51188158989 
5.48046875 0.978655159473 -2.51188158989 
5.48046875 0.929722368717 -2.51188158989 
5.48046875 0.880789637566 -2.51188158989 
5.48046875 0.831856846809 -2.51188158989 
5.48046875 0.782924115658 -2.51188158989 
5.48046875 0.733991324902 -2.51188158989 
5.48046875 0.68505859375 -2.51188158989 
5.48046875 0.636125862598 -2.51188158989 
5.48046875 0.587193071842 -2.51188158989 
5.48046875 0.538260340691 -2.51188158989 
5.4765625 0.488978803158 -2.51009106636 
5.4765625 0.440080910921 -2.51009106636 
5.4765625 0.391183048487 -2.51009106636 
5.4765625 0.34228515625 -2.51009106636 
5.4765625 0.293387264013 -2.51009106636 
5.4765625 0.244489401579 -2.51009106636 
5.4765625 0.195591524243 -2.51009106636 
5.4765625 0.146693632007 -2.51009106636 
5.4765625 0.0977957621217 -2.51009106636 
5.4765625 0.0488978810608 -2.51009106636 
5.4765625 0.0 -2.51009106636 
5.4765625 -0.0488978810608 -2.51009106636 
5.4765625 -0.0977957621217 -2.51009106636 
5.4765625 -0.146693632007 -2.51009106636 
5.4765625 -0.195591524243 -2.51009106636 
5.4765625 -0.244489401579 -2.51009106636 
5.4765625 -0.293387264013 -2.51009106636 
5.4765625 -0.34228515625 -2.51009106636 
5.4765625 -0.391183048487 -2.51009106636 
5.4765625 -0.440080910921 -2.51009106636 
5.4765625 -0.488978803158 -2.51009106636 
5.4765625 -0.537876665592 -2.51009106636 
5.4765625 -0.586774528027 -2.51009106636 
5.4765625 -0.635672450066 -2.51009106636 
5.4765625 -0.6845703125 -2.51009106636 
5.47265625 -0.732945024967 -2.50830078125 
5.47265625 -0.781808018684 -2.50830078125 
5.47265625 -0.830671012402 -2.50830078125 
5.47265625 -0.879534065723 -2.50830078125 
5.47265625 -0.928397059441 -2.50830078125 
5.47265625 -0.977260053158 -2.50830078125 
5.47265625 -1.02612304688 -2.50830078125 
5.47265625 -1.0749861002 -2.50830078125 
5.47265625 -1.12384903431 -2.50830078125 
5.47265625 -1.17271208763 -2.50830078125 
5.47265625 -1.22157502174 -2.50830078125 
5.47265625 -1.27043807507 -2.50830078125 
5.47265625 -1.31930100918 -2.50830078125 
5.47265625 -1.3681640625 -2.50830078125 
5.47265625 -1.41702711582 -2.50830078125 
5.47265625 -1.46589004993 -2.50830078125 
5.47265625 -1.51475310326 -2.50830078125 
5.47265625 -1.56361603737 -2.50830078125 
5.47265625 -1.61247909069 -2.50830078125 
5.47265625 -1.6613420248 -2.50830078125 
5.47265625 -1.71020507812 -2.50830078125 
5.47265625 -1.75906813145 -2.50830078125 
5.47265625 -1.80793106556 -2.50830078125 
5.47265625 -1.85679411888 -2.50830078125 
5.47265625 -1.90565705299 -2.50830078125 
5.46875 -1.953125 -2.50651049614 
5.46875 -2.001953125 -2.50651049614 
5.46875 -2.05078125 -2.50651049614 
5.46875 -2.099609375 -2.50651049614 
5.46875 -2.1484375 -2.50651049614 
5.46875 -2.197265625 -2.50651049614 
5.46875 -2.24609375 -2.50651049614 
5.46875 -2.294921875 -2.50651049614 
5.46875 -2.34375 -2.50651049614 
5.46875 -2.392578125 -2.50651049614 
5.46875 -2.44140625 -2.50651049614 
5.46875 -2.490234375 -2.50651049614 
5.46875 -2.5390625 -2.50651049614 
5.46875 -2.587890625 -2.50651049614 
5.46875 -2.63671875 -2.50651049614 
5.46875 -2.685546875 -2.50651049614 
5.46875 -2.734375 -2.50651049614 
5.46875 -2.783203125 -2.50651049614 
5.46875 -2.83203125 -2.50651049614 
5.46875 -2.880859375 -2.50651049614 
5.46875 -2.9296875 -2.50651049614 
5.46875 -2.978515625 -2.50651049614 
5.46875 -3.02734375 -2.50651049614 
5.46875 -3.076171875 -2.50651049614 
5.46875 -3.125 -2.50651049614 
5.46484375 -3.17156100273 -2.50471997261 
5.46484375 -3.22035431862 -2.50471997261 
5.46484375 -3.26914763451 -2.50471997261 
5.46484375 -3.31794095039 -2.50471997261 
5.46484375 -3.36673402786 -2.50471997261 
5.46484375 -3.41552734375 -2.50471997261 
5.46484375 -3.46432065964 -2.50471997261 
5.46484375 -3.51311373711 -2.50471997261 
5.46484375 -3.56190705299 -2.50471997261 
5.46484375 -3.61070036888 -2.50471997261 
5.46484375 -3.65949368477 -2.50471997261 
5.46484375 -3.70828676224 -2.50471997261 
5.46484375 -3.75708007812 -2.50471997261 
5.46484375 -3.80587339401 -2.50471997261 
5.46484375 -3.85466647148 -2.50471997261 
5.46484375 -3.90345978737 -2.50471997261 
5.46484375 -3.95225310326 -2.50471997261 
5.46484375 -4.00104618073 -2.50471997261 
5.46484375 -4.04983949661 -2.50471997261 
5.46484375 -4.0986328125 -2.50471997261 
5.46484375 -4.14742612839 -2.50471997261 
5.46484375 -4.19621944427 -2.50471997261 
5.46484375 -4.24501276016 -2.50471997261 
5.46484375 -4.29380559921 -2.50471997261 
5.4609375 -4.33949518204 -2.5029296875 
5.4609375 -4.38825321198 -2.5029296875 
5.4609375 -4.43701171875 -2.5029296875 
5.4609375 -4.48577022552 -2.5029296875 
5.4609375 -4.53452825546 -2.5029296875 
5.4609375 -4.58328676224 -2.5029296875 
5.4609375 -4.63204526901 -2.5029296875 
5.4609375 -4.68080377579 -2.5029296875 
5.4609375 -4.72956180573 -2.5029296875 
5.4609375 -4.7783203125 -2.5029296875 
5.4609375 -4.82707881927 -2.5029296875 
5.4609375 -4.87583684921 -2.5029296875 
5.4609375 -4.92459535599 -2.5029296875 
5.4609375 -4.97335386276 -2.5029296875 
5.4609375 -5.02211236954 -2.5029296875 
5.4609375 -5.07087039948 -2.5029296875 
5.4609375 -5.11962890625 -2.5029296875 
5.4609375 -5.16838741302 -2.5029296875 
5.4609375 -5.21714544296 -2.5029296875 
5.4609375 -5.26590394974 -2.5029296875 
5.4609375 -5.31466245651 -2.5029296875 
5.4609375 -5.36342096329 -2.5029296875 
5.4609375 -5.41217899323 -2.5029296875 
5.390625 5.390625 -2.51883363724 
5.390625 5.34249448776 -2.51883363724 
5.390625 5.29436397552 -2.51883363724 
5.38671875 5.24243164062 -2.51700854301 
5.38671875 5.1943359375 -2.51700854301 
5.38671875 5.14624023438 -2.51700854301 
5.38671875 5.09814453125 -2.51700854301 
5.38671875 5.05004882812 -2.51700854301 
5.38671875 5.001953125 -2.51700854301 
5.38671875 4.95385742188 -2.51700854301 
5.38671875 4.90576171875 -2.51700854301 
5.38671875 4.85766601562 -2.51700854301 
5.38671875 4.8095703125 -2.51700854301 
5.38671875 4.76147460938 -2.51700854301 
5.38671875 4.71337890625 -2.51700854301 
5.38671875 4.66528320312 -2.51700854301 
5.38671875 4.6171875 -2.51700854301 
5.38671875 4.56909179688 -2.51700854301 
5.38671875 4.52099609375 -2.51700854301 
5.38671875 4.47290039062 -2.51700854301 
5.38671875 4.4248046875 -2.51700854301 
5.38671875 4.37670898438 -2.51700854301 
5.38671875 4.32861328125 -2.51700854301 
5.38671875 4.28051757812 -2.51700854301 
5.38671875 4.232421875 -2.51700854301 
5.38671875 4.18432617188 -2.51700854301 
5.38671875 4.13623046875 -2.51700854301 
5.38671875 4.08813476562 -2.51700854301 
5.3828125 4.037109375 -2.51518321037 
5.3828125 3.98904848099 -2.51518321037 
5.3828125 3.94098782539 -2.51518321037 
5.3828125 3.89292693138 -2.51518321037 
5.3828125 3.84486603737 -2.51518321037 
5.3828125 3.79680514336 -2.51518321037 
5.3828125 3.74874448776 -2.51518321037 
5.3828125 3.70068359375 -2.51518321037 
5.3828125 3.65262269974 -2.51518321037 
5.3828125 3.60456204414 -2.51518321037 
5.3828125 3.55650115013 -2.51518321037 
5.3828125 3.50844025612 -2.51518321037 
5.3828125 3.46037936211 -2.51518321037 
5.3828125 3.41231870651 -2.51518321037 
5.3828125 3.3642578125 -2.51518321037 
5.3828125 3.31619691849 -2.51518321037 
5.3828125 3.26813626289 -2.51518321037 
5.3828125 3.22007536888 -2.51518321037 
5.3828125 3.17201447487 -2.51518321037 
5.3828125 3.12395358086 -2.51518321037 
5.3828125 3.07589292526 -2.51518321037 
5.3828125 3.02783203125 -2.51518321037 
5.3828125 2.97977113724 -2.51518321037 
5.3828125 2.93171048164 -2.51518321037 
5.3828125 2.88364958763 -2.51518321037 
5.3828125 2.83558869362 -2.51518321037 
5.37890625 2.78550505638 -2.51335787773 
5.37890625 2.73747897148 -2.51335787773 
5.37890625 2.689453125 -2.51335787773 
5.37890625 2.64142727852 -2.51335787773 
5.37890625 2.59340119362 -2.51335787773 
5.37890625 2.54537534714 -2.51335787773 
5.37890625 2.49734926224 -2.51335787773 
5.37890625 2.44932341576 -2.51335787773 
5.37890625 2.40129733086 -2.51335787773 
5.37890625 2.35327148438 -2.51335787773 
5.37890625 2.30524563789 -2.51335787773 
5.37890625 2.25721955299 -2.51335787773 
5.37890625 2.20919370651 -2.51335787773 
5.37890625 2.16116762161 -2.51335787773 
5.37890625 2.11314177513 -2.51335787773 
5.37890625 2.06511569023 -2.51335787773 
5.37890625 2.01708984375 -2.51335787773 
5.37890625 1.96906387806 -2.51335787773 
5.37890625 1.92103791237 -2.51335787773 
5.37890625 1.87301194668 -2.51335787773 
5.37890625 1.8249861002 -2.51335787773 
5.37890625 1.77696013451 -2.51335787773 
5.37890625 1.72893416882 -2.51335787773 
5.37890625 1.68090820312 -2.51335787773 
5.37890625 1.63288223743 -2.51335787773 
5.37890625 1.58485627174 -2.51335787773 
5.375 1.53571426868 -2.51153278351 
5.375 1.48772323132 -2.51153278351 
5.375 1.43973219395 -2.51153278351 
5.375 1.39174103737 -2.51153278351 
5.375 1.34375 -2.51153278351 
5.375 1.29575896263 -2.51153278351 
5.375 1.24776780605 -2.51153278351 
5.375 1.19977676868 -2.51153278351 
5.375 1.15178573132 -2.51153278351 
5.375 1.10379469395 -2.51153278351 
5.375 1.05580353737 -2.51153278351 
5.375 1.0078125 -2.51153278351 
5.375 0.959821403027 -2.51153278351 
5.375 0.911830365658 -2.51153278351 
5.375 0.863839268684 -2.51153278351 
5.375 0.815848231316 -2.51153278351 
5.375 0.767857134342 -2.51153278351 
5.375 0.719866096973 -2.51153278351 
5.375 0.671875 -2.51153278351 
5.375 0.623883903027 -2.51153278351 
5.375 0.575892865658 -2.51153278351 
5.375 0.527901768684 -2.51153278351 
5.375 0.479910701513 -2.51153278351 
5.375 0.431919634342 -2.51153278351 
5.375 0.383928567171 -2.51153278351 
5.37109375 0.335693359375 -2.50970745087 
5.37109375 0.287737160921 -2.50970745087 
5.37109375 0.239780977368 -2.50970745087 
5.37109375 0.191824778914 -2.50970745087 
5.37109375 0.143868580461 -2.50970745087 
5.37109375 0.0959123894572 -2.50970745087 
5.37109375 0.0479561947286 -2.50970745087 
5.37109375 0.0 -2.50970745087 
5.37109375 -0.0479561947286 -2.50970745087 
5.37109375 -0.0959123894572 -2.50970745087 
5.37109375 -0.143868580461 -2.50970745087 
5.37109375 -0.191824778914 -2.50970745087 
5.37109375 -0.239780977368 -2.50970745087 
5.37109375 -0.287737160921 -2.50970745087 
5.37109375 -0.335693359375 -2.50970745087 
5.37109375 -0.383649557829 -2.50970745087 
5.37109375 -0.431605756283 -2.50970745087 
5.37109375 -0.479561954737 -2.50970745087 
5.37109375 -0.527518153191 -2.50970745087 
5.37109375 -0.575474321842 -2.50970745087 
5.37109375 -0.623430550098 -2.50970745087 
5.37109375 -0.67138671875 -2.50970745087 
5.37109375 -0.719342887402 -2.50970745087 
5.37109375 -0.767299115658 -2.50970745087 
5.37109375 -0.815255284309 -2.50970745087 
5.37109375 -0.863211512566 -2.50970745087 
5.3671875 -0.910504996777 -2.50788235664 
5.3671875 -0.958426356316 -2.50788235664 
5.3671875 -1.00634765625 -2.50788235664 
5.3671875 -1.05426895618 -2.50788235664 
5.3671875 -1.10219025612 -2.50788235664 
5.3671875 -1.15011155605 -2.50788235664 
5.3671875 -1.1980329752 -2.50788235664 
5.3671875 -1.24595427513 -2.50788235664 
5.3671875 -1.29387557507 -2.50788235664 
5.3671875 -1.341796875 -2.50788235664 
5.3671875 -1.38971817493 -2.50788235664 
5.3671875 -1.43763947487 -2.50788235664 
5.3671875 -1.4855607748 -2.50788235664 
5.3671875 -1.53348219395 -2.50788235664 
5.3671875 -1.58140349388 -2.50788235664 
5.3671875 -1.62932479382 -2.50788235664 
5.3671875 -1.67724609375 -2.50788235664 
5.3671875 -1.72516739368 -2.50788235664 
5.3671875 -1.77308869362 -2.50788235664 
5.3671875 -1.82100999355 -2.50788235664 
5.3671875 -1.8689314127 -2.50788235664 
5.3671875 -1.91685271263 -2.50788235664 
5.3671875 -1.96477401257 -2.50788235664 
5.3671875 -2.0126953125 -2.50788235664 
5.3671875 -2.06061673164 -2.50788235664 
5.3671875 -2.10853791237 -2.50788235664 
5.36328125 -2.15488982201 -2.506057024 
5.36328125 -2.20277619362 -2.506057024 
5.36328125 -2.25066256523 -2.506057024 
5.36328125 -2.29854917526 -2.506057024 
5.36328125 -2.34643554688 -2.506057024 
5.36328125 -2.39432191849 -2.506057024 
5.36328125 -2.44220852852 -2.506057024 
5.36328125 -2.49009490013 -2.506057024 
5.36328125 -2.53798127174 -2.506057024 
5.36328125 -2.58586764336 -2.506057024 
5.36328125 -2.63375425339 -2.506057024 
5.36328125 -2.681640625 -2.506057024 
5.36328125 -2.72952699661 -2.506057024 
5.36328125 -2.77741360664 -2.506057024 
5.36328125 -2.82529997826 -2.506057024 
5.36328125 -2.87318634987 -2.506057024 
5.36328125 -2.92107272148 -2.506057024 
5.36328125 -2.96895933151 -2.506057024 
5.36328125 -3.01684570312 -2.506057024 
5.36328125 -3.06473207474 -2.506057024 
5.36328125 -3.11261868477 -2.506057024 
5.36328125 -3.16050505638 -2.506057024 
5.36328125 -3.20839142799 -2.506057024 
5.36328125 -3.25627779961 -2.506057024 
5.36328125 -3.30416440964 -2.506057024 
5.36328125 -3.35205078125 -2.506057024 
5.359375 -3.3974609375 -2.50423169136 
5.359375 -3.4453125 -2.50423169136 
5.359375 -3.4931640625 -2.50423169136 
5.359375 -3.541015625 -2.50423169136 
5.359375 -3.5888671875 -2.50423169136 
5.359375 -3.63671875 -2.50423169136 
5.359375 -3.6845703125 -2.50423169136 
5.359375 -3.732421875 -2.50423169136 
5.359375 -3.7802734375 -2.50423169136 
5.359375 -3.828125 -2.50423169136 
5.359375 -3.8759765625 -2.50423169136 
5.359375 -3.923828125 -2.50423169136 
5.359375 -3.9716796875 -2.50423169136 
5.359375 -4.01953125 -2.50423169136 
5.359375 -4.0673828125 -2.50423169136 
5.359375 -4.115234375 -2.50423169136 
5.359375 -4.1630859375 -2.50423169136 
5.359375 -4.2109375 -2.50423169136 
5.359375 -4.2587890625 -2.50423169136 
5.359375 -4.306640625 -2.50423169136 
5.359375 -4.3544921875 -2.50423169136 
5.359375 -4.40234375 -2.50423169136 
5.359375 -4.4501953125 -2.50423169136 
5.359375 -4.498046875 -2.50423169136 
5.359375 -4.5458984375 -2.50423169136 
5.359375 -4.59375 -2.50423169136 
5.35546875 -4.63821840286 -2.50240659714 
5.35546875 -4.68603515625 -2.50240659714 
5.35546875 -4.73385190964 -2.50240659714 
5.35546875 -4.78166866302 -2.50240659714 
5.35546875 -4.82948541641 -2.50240659714 
5.35546875 -4.87730169296 -2.50240659714 
5.35546875 -4.92511844635 -2.50240659714 
5.35546875 -4.97293519974 -2.50240659714 
5.35546875 -5.02075195312 -2.50240659714 
5.35546875 -5.06856870651 -2.50240659714 
5.35546875 -5.1163854599 -2.50240659714 
5.35546875 -5.16420221329 -2.50240659714 
5.35546875 -5.21201848984 -2.50240659714 
5.35546875 -5.25983524323 -2.50240659714 
5.35546875 -5.30765199661 -2.50240659714 
5.2890625 5.2890625 -2.51860117912 
5.2890625 5.24183893204 -2.51860117912 
5.2890625 5.19461488724 -2.51860117912 
5.28515625 5.14358949661 -2.51674103737 
5.28515625 5.09640073776 -2.51674103737 
5.28515625 5.04921197891 -2.51674103737 
5.28515625 5.00202274323 -2.51674103737 
5.28515625 4.95483398438 -2.51674103737 
5.28515625 4.90764522552 -2.51674103737 
5.28515625 4.86045598984 -2.51674103737 
5.28515625 4.81326723099 -2.51674103737 
5.28515625 4.76607847214 -2.51674103737 
5.28515625 4.71888971329 -2.51674103737 
5.28515625 4.6717004776 -2.51674103737 
5.28515625 4.62451171875 -2.51674103737 
5.28515625 4.5773229599 -2.51674103737 
5.28515625 4.53013372421 -2.51674103737 
5.28515625 4.48294496536 -2.51674103737 
5.28515625 4.43575620651 -2.51674103737 
5.28515625 4.38856744766 -2.51674103737 
5.28515625 4.34137821198 -2.51674103737 
5.28515625 4.29418945312 -2.51674103737 
5.28515625 4.24700069427 -2.51674103737 
5.28515625 4.19981145859 -2.51674103737 
5.28515625 4.15262269974 -2.51674103737 
5.28515625 4.10543394089 -2.51674103737 
5.28515625 4.05824518204 -2.51674103737 
5.28515625 4.01105594635 -2.51674103737 
5.28515625 3.9638671875 -2.51674103737 
5.28125 3.91378355026 -2.51488089561 
5.28125 3.86662936211 -2.51488089561 
5.28125 3.81947541237 -2.51488089561 
5.28125 3.77232146263 -2.51488089561 
5.28125 3.72516751289 -2.51488089561 
5.28125 3.67801332474 -2.51488089561 
5.28125 3.630859375 -2.51488089561 
5.28125 3.58370542526 -2.51488089561 
5.28125 3.53655123711 -2.51488089561 
5.28125 3.48939728737 -2.51488089561 
5.28125 3.44224333763 -2.51488089561 
5.28125 3.39508938789 -2.51488089561 
5.28125 3.34793519974 -2.51488089561 
5.28125 3.30078125 -2.51488089561 
5.28125 3.25362730026 -2.51488089561 
5.28125 3.20647311211 -2.51488089561 
5.28125 3.15931916237 -2.51488089561 
5.28125 3.11216521263 -2.51488089561 
5.28125 3.06501126289 -2.51488089561 
5.28125 3.01785707474 -2.51488089561 
5.28125 2.970703125 -2.51488089561 
5.28125 2.92354917526 -2.51488089561 
5.28125 2.87639498711 -2.51488089561 
5.28125 2.82924103737 -2.51488089561 
5.28125 2.78208708763 -2.51488089561 
5.28125 2.73493313789 -2.51488089561 
5.28125 2.68777894974 -2.51488089561 
5.27734375 2.638671875 -2.51302075386 
5.27734375 2.59155273438 -2.51302075386 
5.27734375 2.54443359375 -2.51302075386 
5.27734375 2.49731445312 -2.51302075386 
5.27734375 2.4501953125 -2.51302075386 
5.27734375 2.40307617188 -2.51302075386 
5.27734375 2.35595703125 -2.51302075386 
5.27734375 2.30883789062 -2.51302075386 
5.27734375 2.26171875 -2.51302075386 
5.27734375 2.21459960938 -2.51302075386 
5.27734375 2.16748046875 -2.51302075386 
5.27734375 2.12036132812 -2.51302075386 
5.27734375 2.0732421875 -2.51302075386 
5.27734375 2.02612304688 -2.51302075386 
5.27734375 1.97900390625 -2.51302075386 
5.27734375 1.93188476562 -2.51302075386 
5.27734375 1.884765625 -2.51302075386 
5.27734375 1.83764648438 -2.51302075386 
5.27734375 1.79052734375 -2.51302075386 
5.27734375 1.74340820312 -2.51302075386 
5.27734375 1.6962890625 -2.51302075386 
5.27734375 1.64916992188 -2.51302075386 
5.27734375 1.60205078125 -2.51302075386 
5.27734375 1.55493164062 -2.51302075386 
5.27734375 1.5078125 -2.51302075386 
5.27734375 1.46069335938 -2.51302075386 
5.27734375 1.41357421875 -2.51302075386 
5.2734375 1.3654435873 -2.51116061211 
5.2734375 1.318359375 -2.51116061211 
5.2734375 1.2712751627 -2.51116061211 
5.2734375 1.22419083118 -2.51116061211 
5.2734375 1.17710661888 -2.51116061211 
5.2734375 1.13002228737 -2.51116061211 
5.2734375 1.08293807507 -2.51116061211 
5.2734375 1.03585374355 -2.51116061211 
5.2734375 0.98876953125 -2.51116061211 
5.2734375 0.941685259342 -2.51116061211 
5.2734375 0.894600987434 -2.51116061211 
5.2734375 0.847516715527 -2.51116061211 
5.2734375 0.800432503223 -2.51116061211 
5.2734375 0.753348231316 -2.51116061211 
5.2734375 0.706263959408 -2.51116061211 
5.2734375 0.6591796875 -2.51116061211 
5.2734375 0.612095415592 -2.51116061211 
5.2734375 0.565011143684 -2.51116061211 
5.2734375 0.517926871777 -2.51116061211 
5.2734375 0.470842629671 -2.51116061211 
5.2734375 0.423758357763 -2.51116061211 
5.2734375 0.376674115658 -2.51116061211 
5.2734375 0.32958984375 -2.51116061211 
5.2734375 0.282505571842 -2.51116061211 
5.2734375 0.235421314836 -2.51116061211 
5.2734375 0.188337057829 -2.51116061211 
5.26953125 0.141148164868 -2.50930070877 
5.26953125 0.0940987691283 -2.50930070877 
5.26953125 0.0470493845642 -2.50930070877 
5.26953125 0.0 -2.50930070877 
5.26953125 -0.0470493845642 -2.50930070877 
5.26953125 -0.0940987691283 -2.50930070877 
5.26953125 -0.141148164868 -2.50930070877 
5.26953125 -0.188197538257 -2.50930070877 
5.26953125 -0.235246926546 -2.50930070877 
5.26953125 -0.282296329737 -2.50930070877 
5.26953125 -0.329345703125 -2.50930070877 
5.26953125 -0.376395076513 -2.50930070877 
5.26953125 -0.423444479704 -2.50930070877 
5.26953125 -0.470493853092 -2.50930070877 
5.26953125 -0.517543256283 -2.50930070877 
5.26953125 -0.564592659473 -2.50930070877 
5.26953125 -0.611642003059 -2.50930070877 
5.26953125 -0.65869140625 -2.50930070877 
5.26953125 -0.705740809441 -2.50930070877 
5.26953125 -0.752790153027 -2.50930070877 
5.26953125 -0.799839556217 -2.50930070877 
5.26953125 -0.846888959408 -2.50930070877 
5.26953125 -0.893938362598 -2.50930070877 
5.26953125 -0.940987706184 -2.50930070877 
5.26953125 -0.988037109375 -2.50930070877 
5.26953125 -1.03508651257 -2.50930070877 
5.26953125 -1.08213591576 -2.50930070877 
5.265625 -1.12834823132 -2.50744056702 
5.265625 -1.17536270618 -2.50744056702 
5.265625 -1.22237718105 -2.50744056702 
5.265625 -1.26939177513 -2.50744056702 
5.265625 -1.31640625 -2.50744056702 
5.265625 -1.36342072487 -2.50744056702 
5.265625 -1.41043531895 -2.50744056702 
5.265625 -1.45744979382 -2.50744056702 
5.265625 -1.50446426868 -2.50744056702 
5.265625 -1.55147874355 -2.50744056702 
5.265625 -1.59849333763 -2.50744056702 
5.265625 -1.6455078125 -2.50744056702 
5.265625 -1.69252228737 -2.50744056702 
5.265625 -1.73953688145 -2.50744056702 
5.265625 -1.78655135632 -2.50744056702 
5.265625 -1.83356583118 -2.50744056702 
5.265625 -1.88058030605 -2.50744056702 
5.265625 -1.92759490013 -2.50744056702 
5.265625 -1.974609375 -2.50744056702 
5.265625 -2.02162384987 -2.50744056702 
5.265625 -2.06863832474 -2.50744056702 
5.265625 -2.11565279961 -2.50744056702 
5.265625 -2.16266751289 -2.50744056702 
5.265625 -2.20968198776 -2.50744056702 
5.265625 -2.25669646263 -2.50744056702 
5.265625 -2.3037109375 -2.50744056702 
5.265625 -2.35072541237 -2.50744056702 
5.26171875 -2.39596128464 -2.50558042526 
5.26171875 -2.44294095039 -2.50558042526 
5.26171875 -2.48992037773 -2.50558042526 
5.26171875 -2.53690004349 -2.50558042526 
5.26171875 -2.58387970924 -2.50558042526 
5.26171875 -2.630859375 -2.50558042526 
5.26171875 -2.67783904076 -2.50558042526 
5.26171875 -2.72481870651 -2.50558042526 
5.26171875 -2.77179837227 -2.50558042526 
5.26171875 -2.81877779961 -2.50558042526 
5.26171875 -2.86575746536 -2.50558042526 
5.26171875 -2.91273713112 -2.50558042526 
5.26171875 -2.95971679688 -2.50558042526 
5.26171875 -3.00669646263 -2.50558042526 
5.26171875 -3.05367612839 -2.50558042526 
5.26171875 -3.10065579414 -2.50558042526 
5.26171875 -3.14763522148 -2.50558042526 
5.26171875 -3.19461488724 -2.50558042526 
5.26171875 -3.24159455299 -2.50558042526 
5.26171875 -3.28857421875 -2.50558042526 
5.26171875 -3.33555388451 -2.50558042526 
5.26171875 -3.38253355026 -2.50558042526 
5.26171875 -3.42951321602 -2.50558042526 
5.26171875 -3.47649264336 -2.50558042526 
5.26171875 -3.52347230911 -2.50558042526 
5.26171875 -3.57045197487 -2.50558042526 
5.26171875 -3.61743164062 -2.50558042526 
5.2578125 -3.66169095039 -2.50372028351 
5.2578125 -3.70863556862 -2.50372028351 
5.2578125 -3.75558042526 -2.50372028351 
5.2578125 -3.80252504349 -2.50372028351 
5.2578125 -3.84946990013 -2.50372028351 
5.2578125 -3.89641451836 -2.50372028351 
5.2578125 -3.943359375 -2.50372028351 
5.2578125 -3.99030423164 -2.50372028351 
5.2578125 -4.03724908829 -2.50372028351 
5.2578125 -4.08419370651 -2.50372028351 
5.2578125 -4.13113832474 -2.50372028351 
5.2578125 -4.17808294296 -2.50372028351 
5.2578125 -4.22502803802 -2.50372028351 
5.2578125 -4.27197265625 -2.50372028351 
5.2578125 -4.31891727448 -2.50372028351 
5.2578125 -4.36586236954 -2.50372028351 
5.2578125 -4.41280698776 -2.50372028351 
5.2578125 -4.45975160599 -2.50372028351 
5.2578125 -4.50669622421 -2.50372028351 
5.2578125 -4.55364131927 -2.50372028351 
5.2578125 -4.6005859375 -2.50372028351 
5.2578125 -4.64753055573 -2.50372028351 
5.2578125 -4.69447565079 -2.50372028351 
5.2578125 -4.74142026901 -2.50372028351 
5.2578125 -4.78836488724 -2.50372028351 
5.2578125 -4.83530950546 -2.50372028351 
5.2578125 -4.88225460052 -2.50372028351 
5.25390625 -4.92553710938 -2.50186014175 
5.25390625 -4.97244691849 -2.50186014175 
5.25390625 -5.0193567276 -2.50186014175 
5.25390625 -5.06626653671 -2.50186014175 
5.25390625 -5.11317682266 -2.50186014175 
5.25390625 -5.16008663177 -2.50186014175 
5.25390625 -5.20699644089 -2.50186014175 
5.19140625 5.19140625 -2.51845002174 
5.19140625 5.14505434036 -2.51845002174 
5.1875 5.09486627579 -2.51655507088 
5.1875 5.04854917526 -2.51655507088 
5.1875 5.00223207474 -2.51655507088 
5.1875 4.95591497421 -2.51655507088 
5.1875 4.90959835052 -2.51655507088 
5.1875 4.86328125 -2.51655507088 
5.1875 4.81696414948 -2.51655507088 
5.1875 4.77064752579 -2.51655507088 
5.1875 4.72433042526 -2.51655507088 
5.1875 4.67801332474 -2.51655507088 
5.1875 4.63169622421 -2.51655507088 
5.1875 4.58537960052 -2.51655507088 
5.1875 4.5390625 -2.51655507088 
5.1875 4.49274539948 -2.51655507088 
5.1875 4.44642877579 -2.51655507088 
5.1875 4.40011167526 -2.51655507088 
5.1875 4.35379457474 -2.51655507088 
5.1875 4.30747747421 -2.51655507088 
5.1875 4.26116085052 -2.51655507088 
5.1875 4.21484375 -2.51655507088 
5.1875 4.16852664948 -2.51655507088 
5.1875 4.12221002579 -2.51655507088 
5.1875 4.07589292526 -2.51655507088 
5.1875 4.02957582474 -2.51655507088 
5.1875 3.98325896263 -2.51655507088 
5.1875 3.93694186211 -2.51655507088 
5.1875 3.890625 -2.51655507088 
5.18359375 3.84141325951 -2.51466012001 
5.18359375 3.79513120651 -2.51466012001 
5.18359375 3.74884915352 -2.51466012001 
5.18359375 3.70256686211 -2.51466012001 
5.18359375 3.65628480911 -2.51466012001 
5.18359375 3.61000275612 -2.51466012001 
5.18359375 3.56372070312 -2.51466012001 
5.18359375 3.51743865013 -2.51466012001 
5.18359375 3.47115659714 -2.51466012001 
5.18359375 3.42487454414 -2.51466012001 
5.18359375 3.37859225273 -2.51466012001 
5.18359375 3.33231019974 -2.51466012001 
5.18359375 3.28602814674 -2.51466012001 
5.18359375 3.23974609375 -2.51466012001 
5.18359375 3.19346404076 -2.51466012001 
5.18359375 3.14718198776 -2.51466012001 
5.18359375 3.10089993477 -2.51466012001 
5.18359375 3.05461764336 -2.51466012001 
5.18359375 3.00833559036 -2.51466012001 
5.18359375 2.96205353737 -2.51466012001 
5.18359375 2.91577148438 -2.51466012001 
5.18359375 2.86948943138 -2.51466012001 
5.18359375 2.82320737839 -2.51466012001 
5.18359375 2.77692532539 -2.51466012001 
5.18359375 2.73064303398 -2.51466012001 
5.18359375 2.68436098099 -2.51466012001 
5.18359375 2.63807892799 -2.51466012001 
5.18359375 2.591796875 -2.51466012001 
5.1796875 2.54359650612 -2.51276516914 
5.1796875 2.49734926224 -2.51276516914 
5.1796875 2.45110201836 -2.51276516914 
5.1796875 2.40485501289 -2.51276516914 
5.1796875 2.35860776901 -2.51276516914 
5.1796875 2.31236052513 -2.51276516914 
5.1796875 2.26611328125 -2.51276516914 
5.1796875 2.21986603737 -2.51276516914 
5.1796875 2.17361879349 -2.51276516914 
5.1796875 2.12737154961 -2.51276516914 
5.1796875 2.08112454414 -2.51276516914 
5.1796875 2.03487730026 -2.51276516914 
5.1796875 1.98863005638 -2.51276516914 
5.1796875 1.9423828125 -2.51276516914 
5.1796875 1.89613556862 -2.51276516914 
5.1796875 1.84988844395 -2.51276516914 
5.1796875 1.80364120007 -2.51276516914 
5.1796875 1.75739395618 -2.51276516914 
5.1796875 1.7111467123 -2.51276516914 
5.1796875 1.66489958763 -2.51276516914 
5.1796875 1.61865234375 -2.51276516914 
5.1796875 1.57240509987 -2.51276516914 
5.1796875 1.5261579752 -2.51276516914 
5.1796875 1.47991073132 -2.51276516914 
5.1796875 1.43366348743 -2.51276516914 
5.1796875 1.38741624355 -2.51276516914 
5.1796875 1.34116911888 -2.51276516914 
5.1796875 1.294921875 -2.51276516914 
5.17578125 1.24773299694 -2.51086997986 
5.17578125 1.20152068138 -2.51086997986 
5.17578125 1.15530836582 -2.51086997986 
5.17578125 1.10909593105 -2.51086997986 
5.17578125 1.06288361549 -2.51086997986 
5.17578125 1.01667129993 -2.51086997986 
5.17578125 0.970458984375 -2.51086997986 
5.17578125 0.924246668816 -2.51086997986 
5.17578125 0.878034293652 -2.51086997986 
5.17578125 0.831821978092 -2.51086997986 
5.17578125 0.785609662533 -2.51086997986 
5.17578125 0.739397346973 -2.51086997986 
5.17578125 0.693184971809 -2.51086997986 
5.17578125 0.64697265625 -2.51086997986 
5.17578125 0.600760340691 -2.51086997986 
5.17578125 0.554547965527 -2.51086997986 
5.17578125 0.508335649967 -2.51086997986 
5.17578125 0.462123334408 -2.51086997986 
5.17578125 0.415910989046 -2.51086997986 
5.17578125 0.369698673487 -2.51086997986 
5.17578125 0.323486328125 -2.51086997986 
5.17578125 0.277273982763 -2.51086997986 
5.17578125 0.231061667204 -2.51086997986 
5.17578125 0.184849336743 -2.51086997986 
5.17578125 0.138636991382 -2.51086997986 
5.17578125 0.0924246683717 -2.51086997986 
5.17578125 0.0462123341858 -2.51086997986 
5.17578125 0.0 -2.51086997986 
5.171875 -0.0461774542928 -2.50897502899 
5.171875 -0.0923549085855 -2.50897502899 
5.171875 -0.138532370329 -2.50897502899 
5.171875 -0.184709817171 -2.50897502899 
5.171875 -0.230887278914 -2.50897502899 
5.171875 -0.277064740658 -2.50897502899 
5.171875 -0.3232421875 -2.50897502899 
5.171875 -0.369419634342 -2.50897502899 
5.171875 -0.415597110987 -2.50897502899 
5.171875 -0.461774557829 -2.50897502899 
5.171875 -0.507952034473 -2.50897502899 
5.171875 -0.554129481316 -2.50897502899 
5.171875 -0.600306928158 -2.50897502899 
5.171875 -0.646484375 -2.50897502899 
5.171875 -0.692661821842 -2.50897502899 
5.171875 -0.738839268684 -2.50897502899 
5.171875 -0.785016715527 -2.50897502899 
5.171875 -0.831194221973 -2.50897502899 
5.171875 -0.877371668816 -2.50897502899 
5.171875 -0.923549115658 -2.50897502899 
5.171875 -0.9697265625 -2.50897502899 
5.171875 -1.01590406895 -2.50897502899 
5.171875 -1.06208145618 -2.50897502899 
5.171875 -1.10825896263 -2.50897502899 
5.171875 -1.15443634987 -2.50897502899 
5.171875 -1.20061385632 -2.50897502899 
5.171875 -1.24679124355 -2.50897502899 
5.16796875 -1.2919921875 -2.50708007812 
5.16796875 -1.33813476562 -2.50708007812 
5.16796875 -1.38427734375 -2.50708007812 
5.16796875 -1.43041992188 -2.50708007812 
5.16796875 -1.4765625 -2.50708007812 
5.16796875 -1.52270507812 -2.50708007812 
5.16796875 -1.56884765625 -2.50708007812 
5.16796875 -1.61499023438 -2.50708007812 
5.16796875 -1.6611328125 -2.50708007812 
5.16796875 -1.70727539062 -2.50708007812 
5.16796875 -1.75341796875 -2.50708007812 
5.16796875 -1.79956054688 -2.50708007812 
5.16796875 -1.845703125 -2.50708007812 
5.16796875 -1.89184570312 -2.50708007812 
5.16796875 -1.93798828125 -2.50708007812 
5.16796875 -1.98413085938 -2.50708007812 
5.16796875 -2.0302734375 -2.50708007812 
5.16796875 -2.07641601562 -2.50708007812 
5.16796875 -2.12255859375 -2.50708007812 
5.16796875 -2.16870117188 -2.50708007812 
5.16796875 -2.21484375 -2.50708007812 
5.16796875 -2.26098632812 -2.50708007812 
5.16796875 -2.30712890625 -2.50708007812 
5.16796875 -2.35327148438 -2.50708007812 
5.16796875 -2.3994140625 -2.50708007812 
5.16796875 -2.44555664062 -2.50708007812 
5.16796875 -2.49169921875 -2.50708007812 
5.16796875 -2.53784179688 -2.50708007812 
5.1640625 -2.58203125 -2.50518512726 
5.1640625 -2.62813901901 -2.50518512726 
5.1640625 -2.67424654961 -2.50518512726 
5.1640625 -2.72035431862 -2.50518512726 
5.1640625 -2.76646208763 -2.50518512726 
5.1640625 -2.81256985664 -2.50518512726 
5.1640625 -2.85867738724 -2.50518512726 
5.1640625 -2.90478515625 -2.50518512726 
5.1640625 -2.95089292526 -2.50518512726 
5.1640625 -2.99700045586 -2.50518512726 
5.1640625 -3.04310822487 -2.50518512726 
5.1640625 -3.08921599388 -2.50518512726 
