20.734375 14.4400110245 0.493675589561 
20.84375 14.330078125 0.496279776096 
20.9375 14.2075891495 0.498511910439 
21.046875 14.0938892365 0.501116096973 
21.15625 13.9782361984 0.503720223904 
21.25 13.850446701 0.505952358246 
21.359375 13.7310266495 0.508556544781 
21.46875 13.6096544266 0.511160731316 
21.578125 13.486328125 0.513764858246 
21.6875 13.3610486984 0.516369044781 
21.796875 13.2338171005 0.518973231316 
21.90625 13.104631424 0.521577358246 
22.015625 12.973493576 0.524181544781 
22.125 12.8404016495 0.526785731316 
22.25 12.7142858505 0.529761910439 
22.359375 12.5771484375 0.532366096973 
22.484375 12.4467077255 0.535342276096 
22.59375 12.305524826 0.537946403027 
22.71875 12.170759201 0.540922641754 
22.828125 12.0255298615 0.543526768684 
22.953125 11.8864393234 0.546502947807 
23.078125 11.7451171875 0.549479186535 
23.203125 11.6015625 0.552455365658 
23.328125 11.4557752609 0.555431544781 
16.09375 7.75948667526 0.38318452239 
15.765625 7.46051883698 0.37537202239 
15.578125 7.23270082474 0.370907723904 
15.2421875 6.94063901901 0.36290922761 
14.3203125 6.39299678802 0.340959817171 
14.0234375 6.13525390625 0.333891361952 
13.921875 5.96651792526 0.331473201513 
13.953125 5.85532903671 0.332217276096 
14.0390625 5.76604366302 0.334263384342 
13.8828125 5.57791566849 0.330543160439 
13.625 5.35267877579 0.324404776096 
13.375 5.13504457474 0.318452388048 
13.125 4.921875 0.3125 
12.8984375 4.72174930573 0.307105660439 
12.671875 4.52566957474 0.301711320877 
12.453125 4.33635616302 0.29650297761 
12.2421875 4.15359926224 0.291480660439 
12.0390625 3.97719025612 0.286644339561 
11.84375 3.80691957474 0.281994044781 
11.6484375 3.64013671875 0.27734375 
10.78125 3.27287936211 0.256696432829 
10.609375 3.1259765625 0.252604156733 
10.578125 3.02232146263 0.251860111952 
10.5 2.90625 0.25 
10.34375 2.77064728737 0.246279761195 
10.1875 2.63783478737 0.24255952239 
10.171875 2.54296875 0.2421875 
10.0234375 2.41636443138 0.23865327239 
9.8828125 2.29422426224 0.235305055976 
9.75 2.17633938789 0.232142850757 
9.6171875 2.06082582474 0.228980660439 
9.484375 1.94768416882 0.225818455219 
9.359375 1.83844864368 0.222842261195 
9.15625 1.716796875 0.218005955219 
9.0390625 1.61411833763 0.21521577239 
8.9453125 1.51750838757 0.212983638048 
8.7890625 1.41252791882 0.209263399243 
8.828125 1.33998322487 0.210193455219 
8.90625 1.27232146263 0.212053567171 
8.8125 1.18024551868 0.209821432829 
8.7109375 1.0888671875 0.20740327239 
8.71875 1.01199781895 0.207589283586 
8.78125 0.940848231316 0.209077388048 
8.84375 0.868582606316 0.21056547761 
8.90625 0.795200884342 0.212053567171 
8.96875 0.720703125 0.213541671634 
9.0390625 0.645647346973 0.21521577239 
9.1015625 0.56884765625 0.216703861952 
9.171875 0.491350442171 0.21837797761 
9.2421875 0.41259765625 0.220052078366 
9.3125 0.332589298487 0.221726194024 
9.3828125 0.251325339079 0.223400294781 
9.453125 0.168805807829 0.225074410439 
9.5234375 0.0850306898355 0.226748511195 
9.59375 0.0 0.228422611952 
9.671875 -0.0863560289145 0.230282738805 
9.75 -0.174107149243 0.232142850757 
9.828125 -0.263253360987 0.23400297761 
9.90625 -0.353794634342 0.235863089561 
9.984375 -0.445731014013 0.237723216414 
10.0625 -0.5390625 0.239583328366 
10.1484375 -0.63427734375 0.241629466414 
10.234375 -0.731026768684 0.243675589561 
10.3203125 -0.829310834408 0.24572172761 
10.40625 -0.929129481316 0.247767850757 
10.4921875 -1.0304826498 0.249813988805 
10.578125 -1.13337051868 0.251860111952 
10.671875 -1.23869979382 0.254092276096 
10.765625 -1.345703125 0.256324410439 
10.859375 -1.45438063145 0.258556544781 
10.953125 -1.56473219395 0.260788679123 
11.0546875 -1.6779435873 0.263206839561 
11.15625 -1.79296875 0.265625 
11.25 -1.90848219395 0.267857134342 
11.359375 -2.02845978737 0.270461320877 
11.4609375 -2.14892578125 0.272879451513 
11.5703125 -2.27273988724 0.275483638048 
11.6796875 -2.39850735664 0.278087794781 
11.7890625 -2.52622771263 0.280691951513 
11.90625 -2.65764498711 0.283482134342 
22.234375 -5.16155147552 0.529389858246 
22.0625 -5.31863832474 0.525297641754 
21.875 -5.46875 0.520833313465 
21.703125 -5.61955928802 0.516741096973 
21.53125 -5.76729917526 0.512648820877 
21.359375 -5.91196966171 0.508556544781 
21.203125 -6.05803585052 0.504836320877 
21.03125 -6.19670772552 0.500744044781 
20.875 -6.33705377579 0.497023820877 
20.71875 -6.474609375 0.493303567171 
20.5625 -6.609375 0.489583343267 
20.40625 -6.74135065079 0.485863089561 
20.265625 -6.87583684921 0.482514888048 
20.109375 -7.00237178802 0.478794634342 
19.96875 -7.13169622421 0.475446432829 
19.8125 -7.25278997421 0.471726179123 
19.671875 -7.376953125 0.46837797761 
19.53125 -7.49860477448 0.465029776096 
19.40625 -7.62388372421 0.462053567171 
19.265625 -7.74065303802 0.458705365658 
19.125 -7.85491085052 0.455357134342 
19.0 -7.97321414948 0.452380955219 
18.859375 -8.08258914948 0.449032723904 
18.734375 -8.1962890625 0.446056544781 
18.609375 -8.30775642395 0.443080365658 
18.484375 -8.4169921875 0.440104156733 
18.359375 -8.52399539948 0.43712797761 
18.234375 -8.62876701355 0.434151798487 
18.109375 -8.73130607605 0.431175589561 
18.0 -8.83928585052 0.428571432829 
17.875 -8.9375 0.425595223904 
17.765625 -9.04143428802 0.422991067171 
17.71875 -9.17578125 0.421875 
17.96875 -9.46568107605 0.427827388048 
18.234375 -9.76841545105 0.434151798487 
18.5 -10.0758924484 0.440476179123 
18.203125 -10.0767297745 0.433407723904 
18.109375 -10.1865234375 0.431175589561 
18.09375 -10.3392858505 0.430803567171 
19.65625 -11.4076452255 0.468005955219 
19.96875 -11.7672986984 0.475446432829 
20.296875 -12.1418809891 0.483258932829 
20.625 -12.522321701 0.491071432829 
27.859375 -17.1633644104 0.663318455219 
27.6875 -17.3046875 0.659226179123 
27.53125 -17.4528465271 0.655505955219 
27.359375 -17.5881690979 0.651413679123 
27.203125 -17.7306079865 0.647693455219 
27.046875 -17.870256424 0.643973231316 
26.890625 -18.0071144104 0.640252947807 
26.734375 -18.1411838531 0.636532723904 
26.578125 -18.2724609375 0.6328125 
26.421875 -18.4009494781 0.629092276096 
26.28125 -18.5376682281 0.625744044781 
26.125 -18.6607151031 0.622023820877 
25.984375 -18.7922706604 0.618675589561 
25.84375 -18.9213161469 0.615327358246 
25.6875 -19.036272049 0.611607134342 
25.546875 -19.16015625 0.608258903027 
25.40625 -19.2815284729 0.604910731316 
25.265625 -19.400390625 0.6015625 
25.140625 -19.5288791656 0.598586320877 
25.0 -19.6428565979 0.595238089561 
24.859375 -19.7543239594 0.591889858246 
24.734375 -19.875837326 0.588913679123 
24.59375 -19.982421875 0.585565447807 
24.46875 -20.0993309021 0.582589268684 
24.34375 -20.214006424 0.579613089561 
24.21875 -20.3264503479 0.576636910439 
24.09375 -20.436662674 0.573660731316 
23.96875 -20.5446434021 0.570684552193 
23.84375 -20.650390625 0.567708313465 
23.71875 -20.75390625 0.564732134342 
23.59375 -20.8551902771 0.561755955219 
23.484375 -20.9681911469 0.559151768684 
23.359375 -21.0651512146 0.556175589561 
23.25 -21.1741065979 0.553571403027 
23.125 -21.266740799 0.550595223904 
23.015625 -21.3716526031 0.547991096973 
22.890625 -21.4599609375 0.545014858246 
22.78125 -21.5608253479 0.542410731316 
22.671875 -21.6597385406 0.539806544781 
22.5625 -21.756696701 0.537202358246 
22.453125 -21.8517017365 0.534598231316 
22.34375 -21.9447536469 0.531994044781 
22.234375 -22.0358543396 0.529389858246 
17.8125 17.8125 0.265066951513 
17.890625 17.7308864594 0.26622954011 
17.96875 17.6478786469 0.267392098904 
18.046875 17.5634765625 0.2685546875 
18.109375 17.4626121521 0.269484758377 
18.1875 17.3755588531 0.270647317171 
18.265625 17.287109375 0.271809905767 
18.34375 17.197265625 0.272972464561 
18.421875 17.1060276031 0.274135053158 
18.5 17.0133934021 0.275297611952 
18.578125 16.9193630219 0.276460200548 
18.671875 16.8380298615 0.277855277061 
18.75 16.741071701 0.279017865658 
18.828125 16.6427173615 0.280180424452 
18.90625 16.54296875 0.281343013048 
19.0 16.4553565979 0.282738089561 
19.078125 16.352678299 0.283900678158 
19.171875 16.2618579865 0.285295754671 
19.25 16.15625 0.286458343267 
19.34375 16.0622215271 0.287853419781 
19.421875 15.9536828995 0.289016008377 
19.515625 15.8564453125 0.29041108489 
19.609375 15.7575330734 0.291806161404 
19.6875 15.64453125 0.29296875 
19.78125 15.5424108505 0.294363826513 
19.875 15.438615799 0.295758932829 
19.96875 15.333147049 0.297154009342 
20.0625 15.2260046005 0.298549115658 
20.15625 15.1171875 0.299944192171 
20.25 15.006696701 0.301339298487 
20.34375 14.89453125 0.302734375 
20.4375 14.7806921005 0.304129451513 
20.546875 14.6763391495 0.305757075548 
20.640625 14.559012413 0.307152152061 
20.734375 14.4400110245 0.308547258377 
20.84375 14.330078125 0.31017485261 
20.9375 14.2075891495 0.311569929123 
21.046875 14.0938892365 0.313197553158 
21.15625 13.9782361984 0.31482514739 
21.25 13.850446701 0.316220223904 
21.359375 13.7310266495 0.317847847939 
21.46875 13.6096544266 0.319475442171 
21.578125 13.486328125 0.321103036404 
21.6875 13.3610486984 0.322730660439 
21.796875 13.2338171005 0.324358254671 
21.90625 13.104631424 0.325985848904 
22.015625 12.973493576 0.327613472939 
22.125 12.8404016495 0.329241067171 
22.25 12.7142858505 0.331101179123 
22.359375 12.5771484375 0.332728803158 
22.484375 12.4467077255 0.33458891511 
22.59375 12.305524826 0.336216509342 
22.71875 12.170759201 0.338076651096 
22.828125 12.0255298615 0.339704245329 
22.953125 11.8864393234 0.341564357281 
23.078125 11.7451171875 0.343424469233 
23.203125 11.6015625 0.345284610987 
23.328125 11.4557752609 0.347144722939 
16.09375 7.75948667526 0.239490330219 
15.796875 7.47530698776 0.235072538257 
15.578125 7.23270082474 0.23181733489 
15.2421875 6.94063901901 0.226818263531 
14.7265625 6.57435846329 0.219145268202 
14.1328125 6.18310546875 0.210309714079 
13.984375 5.99330377579 0.208100825548 
13.9609375 5.85860776901 0.207752048969 
14.046875 5.76925230026 0.209030881524 
13.8828125 5.57791566849 0.206589475274 
13.625 5.35267877579 0.20275297761 
13.375 5.13504457474 0.199032738805 
13.125 4.921875 0.1953125 
12.8984375 4.72174930573 0.191941037774 
12.671875 4.52566957474 0.188569575548 
12.453125 4.33635616302 0.185314357281 
12.2421875 4.15359926224 0.182175412774 
12.0390625 3.97719025612 0.179152712226 
11.84375 3.80691957474 0.176246285439 
11.6484375 3.64013671875 0.17333984375 
10.796875 3.27762269974 0.160667777061 
10.671875 3.14439177513 0.15880766511 
10.65625 3.04464292526 0.15857514739 
10.5 2.90625 0.15625 
10.34375 2.77064728737 0.15392485261 
10.1875 2.63783478737 0.151599705219 
10.171875 2.54296875 0.1513671875 
10.0234375 2.41636443138 0.149158298969 
9.8828125 2.29422426224 0.147065669298 
9.75 2.17633938789 0.145089283586 
9.6171875 2.06082582474 0.143112912774 
9.484375 1.94768416882 0.141136527061 
9.359375 1.83844864368 0.13927641511 
9.15625 1.716796875 0.136253714561 
9.0 1.60714280605 0.133928567171 
8.9453125 1.51750838757 0.133114770055 
8.7890625 1.41252791882 0.130789622664 
8.828125 1.33998322487 0.131370902061 
8.90625 1.27232146263 0.132533475757 
8.8125 1.18024551868 0.131138399243 
8.7109375 1.0888671875 0.129627048969 
8.71875 1.01199781895 0.129743307829 
8.78125 0.940848231316 0.130673363805 
8.84375 0.868582606316 0.131603419781 
8.90625 0.795200884342 0.132533475757 
8.96875 0.720703125 0.133463546634 
9.0390625 0.645647346973 0.134509861469 
9.1015625 0.56884765625 0.135439917445 
9.171875 0.491350442171 0.136486232281 
9.2421875 0.41259765625 0.137532547116 
9.3125 0.332589298487 0.138578861952 
9.3828125 0.251325339079 0.139625191689 
9.453125 0.168805807829 0.140671506524 
9.5234375 0.0850306898355 0.14171782136 
9.59375 0.0 0.142764136195 
9.671875 -0.0863560289145 0.14392670989 
9.75 -0.174107149243 0.145089283586 
9.828125 -0.263253360987 0.146251857281 
9.90625 -0.353794634342 0.147414430976 
9.984375 -0.445731014013 0.148577004671 
10.0625 -0.5390625 0.149739578366 
10.1484375 -0.63427734375 0.151018410921 
10.234375 -0.731026768684 0.152297243476 
10.3203125 -0.829310834408 0.153576076031 
10.40625 -0.929129481316 0.154854908586 
10.4921875 -1.0304826498 0.15613374114 
10.578125 -1.13337051868 0.157412573695 
10.671875 -1.23869979382 0.15880766511 
10.765625 -1.345703125 0.160202756524 
10.859375 -1.45438063145 0.161597847939 
10.953125 -1.56473219395 0.162992924452 
11.0546875 -1.6779435873 0.164504274726 
11.15625 -1.79296875 0.166015625 
11.25 -1.90848219395 0.167410716414 
11.359375 -2.02845978737 0.169038325548 
11.4609375 -2.14892578125 0.170549660921 
11.5703125 -2.27273988724 0.172177270055 
11.6796875 -2.39850735664 0.173804879189 
11.7890625 -2.52622771263 0.175432473421 
11.8984375 -2.65590119362 0.177060082555 
22.234375 -5.16155147552 0.330868661404 
22.0625 -5.31863832474 0.328311026096 
21.875 -5.46875 0.325520843267 
21.703125 -5.61955928802 0.322963178158 
21.53125 -5.76729917526 0.320405513048 
21.359375 -5.91196966171 0.317847847939 
21.203125 -6.05803585052 0.315522700548 
21.03125 -6.19670772552 0.312965035439 
20.875 -6.33705377579 0.310639888048 
20.71875 -6.474609375 0.308314740658 
20.5625 -6.609375 0.305989593267 
20.40625 -6.74135065079 0.303664445877 
20.265625 -6.87583684921 0.301571786404 
20.109375 -7.00237178802 0.299246639013 
19.96875 -7.13169622421 0.297154009342 
19.8125 -7.25278997421 0.294828861952 
19.671875 -7.376953125 0.292736232281 
19.53125 -7.49860477448 0.29064360261 
19.40625 -7.62388372421 0.288783490658 
19.265625 -7.74065303802 0.286690860987 
19.125 -7.85491085052 0.284598201513 
19.0 -7.97321414948 0.282738089561 
18.859375 -8.08258914948 0.28064545989 
18.734375 -8.1962890625 0.278785347939 
18.609375 -8.30775642395 0.276925235987 
18.484375 -8.4169921875 0.275065094233 
18.359375 -8.52399539948 0.273204982281 
18.234375 -8.62876701355 0.271344870329 
18.109375 -8.73130607605 0.269484758377 
18.0 -8.83928585052 0.267857134342 
17.875 -8.9375 0.26599702239 
17.765625 -9.04143428802 0.264369428158 
17.71875 -9.17578125 0.263671875 
17.96875 -9.46568107605 0.267392098904 
18.234375 -9.76841545105 0.271344870329 
18.5 -10.0758924484 0.275297611952 
18.203125 -10.0767297745 0.27087983489 
18.09375 -10.177734375 0.269252240658 
18.0625 -10.321428299 0.268787205219 
19.65625 -11.4076452255 0.292503714561 
19.96875 -11.7672986984 0.297154009342 
20.296875 -12.1418809891 0.302036821842 
20.625 -12.522321701 0.306919634342 
27.859375 -17.1633644104 0.414574027061 
27.6875 -17.3046875 0.412016361952 
27.53125 -17.4528465271 0.409691214561 
27.359375 -17.5881690979 0.407133549452 
27.203125 -17.7306079865 0.404808402061 
27.046875 -17.870256424 0.402483254671 
26.890625 -18.0071144104 0.400158107281 
26.734375 -18.1411838531 0.39783295989 
26.578125 -18.2724609375 0.3955078125 
26.421875 -18.4009494781 0.39318266511 
26.28125 -18.5376682281 0.391090035439 
26.125 -18.6607151031 0.388764888048 
25.984375 -18.7922706604 0.386672258377 
25.84375 -18.9213161469 0.384579598904 
25.6875 -19.036272049 0.382254451513 
25.546875 -19.16015625 0.380161821842 
25.40625 -19.2815284729 0.378069192171 
25.265625 -19.400390625 0.3759765625 
25.140625 -19.5288791656 0.374116450548 
25.0 -19.6428565979 0.372023820877 
24.859375 -19.7543239594 0.369931161404 
24.734375 -19.875837326 0.368071049452 
24.59375 -19.982421875 0.365978419781 
24.46875 -20.0993309021 0.364118307829 
24.34375 -20.214006424 0.362258195877 
24.21875 -20.3264503479 0.360398054123 
24.09375 -20.436662674 0.358537942171 
23.96875 -20.5446434021 0.356677830219 
23.84375 -20.650390625 0.354817718267 
23.71875 -20.75390625 0.352957576513 
23.59375 -20.8551902771 0.351097464561 
23.484375 -20.9681911469 0.349469870329 
23.359375 -21.0651512146 0.347609758377 
23.25 -21.1741065979 0.345982134342 
23.125 -21.266740799 0.34412202239 
23.015625 -21.3716526031 0.342494428158 
22.890625 -21.4599609375 0.340634286404 
22.78125 -21.5608253479 0.339006692171 
22.671875 -21.6597385406 0.337379097939 
22.5625 -21.756696701 0.335751473904 
22.453125 -21.8517017365 0.334123879671 
22.34375 -21.9447536469 0.332496285439 
22.234375 -22.0358543396 0.330868661404 
17.8125 17.8125 0.106026783586 
17.890625 17.7308864594 0.106491819024 
17.96875 17.6478786469 0.106956847012 
18.046875 17.5634765625 0.107421875 
18.109375 17.4626121521 0.10779389739 
18.1875 17.3755588531 0.108258925378 
18.265625 17.287109375 0.108723960817 
18.34375 17.197265625 0.109188988805 
18.421875 17.1060276031 0.109654016793 
18.5 17.0133934021 0.110119044781 
18.578125 16.9193630219 0.110584080219 
18.671875 16.8380298615 0.111142113805 
18.75 16.741071701 0.111607141793 
18.828125 16.6427173615 0.112072169781 
18.90625 16.54296875 0.112537205219 
19.0 16.4553565979 0.113095238805 
19.078125 16.352678299 0.113560266793 
19.171875 16.2618579865 0.114118300378 
19.25 16.15625 0.114583335817 
19.34375 16.0622215271 0.115141369402 
19.421875 15.9536828995 0.11560639739 
19.515625 15.8564453125 0.116164430976 
19.609375 15.7575330734 0.116722472012 
19.6875 15.64453125 0.1171875 
19.78125 15.5424108505 0.117745533586 
19.875 15.438615799 0.118303574622 
19.96875 15.333147049 0.118861608207 
20.0625 15.2260046005 0.119419641793 
20.15625 15.1171875 0.119977675378 
20.25 15.006696701 0.120535716414 
20.34375 14.89453125 0.12109375 
20.4375 14.7806921005 0.121651783586 
20.546875 14.6763391495 0.122302830219 
20.640625 14.559012413 0.122860863805 
20.734375 14.4400110245 0.12341889739 
20.84375 14.330078125 0.124069944024 
20.9375 14.2075891495 0.12462797761 
21.046875 14.0938892365 0.125279024243 
21.15625 13.9782361984 0.125930055976 
21.25 13.850446701 0.126488089561 
21.359375 13.7310266495 0.127139136195 
21.46875 13.6096544266 0.127790182829 
21.578125 13.486328125 0.128441214561 
21.6875 13.3610486984 0.129092261195 
21.796875 13.2338171005 0.129743307829 
21.90625 13.104631424 0.130394339561 
22.015625 12.973493576 0.131045386195 
22.125 12.8404016495 0.131696432829 
22.25 12.7142858505 0.13244047761 
22.359375 12.5771484375 0.133091524243 
22.484375 12.4467077255 0.133835569024 
22.59375 12.305524826 0.134486600757 
22.71875 12.170759201 0.135230660439 
22.828125 12.0255298615 0.135881692171 
22.953125 11.8864393234 0.136625736952 
23.078125 11.7451171875 0.137369796634 
23.203125 11.6015625 0.138113841414 
23.328125 11.4557752609 0.138857886195 
16.09375 7.75948667526 0.0957961305976 
15.796875 7.47530698776 0.0940290167928 
15.578125 7.23270082474 0.0927269309759 
15.2421875 6.94063901901 0.0907273069024 
14.7265625 6.57435846329 0.0876581072807 
14.421875 6.3095703125 0.0858444944024 
14.0234375 6.01004457474 0.083472840488 
13.9609375 5.85860776901 0.0831008180976 
14.046875 5.76925230026 0.0836123526096 
13.8828125 5.57791566849 0.0826357901096 
13.625 5.35267877579 0.0811011940241 
13.375 5.13504457474 0.079613097012 
13.125 4.921875 0.078125 
12.8984375 4.72174930573 0.0767764151096 
12.671875 4.52566957474 0.0754278302193 
12.453125 4.33635616302 0.0741257444024 
12.2421875 4.15359926224 0.0728701651096 
12.0390625 3.97719025612 0.0716610848904 
11.84375 3.80691957474 0.0704985111952 
11.6484375 3.64013671875 0.0693359375 
11.46875 3.48158478737 0.0682663694024 
10.7109375 3.15590119362 0.0637555792928 
10.65625 3.04464292526 0.0634300559759 
10.5 2.90625 0.0625 
10.34375 2.77064728737 0.0615699402988 
10.1875 2.63783478737 0.0606398805976 
10.171875 2.54296875 0.060546875 
10.0234375 2.41636443138 0.0596633180976 
9.8828125 2.29422426224 0.058826263994 
9.75 2.17633938789 0.0580357126892 
9.6171875 2.06082582474 0.0572451651096 
9.484375 1.94768416882 0.0564546138048 
9.359375 1.83844864368 0.0557105652988 
8.9296875 1.67431640625 0.0531529001892 
8.9921875 1.60574781895 0.0535249263048 
8.9453125 1.51750838757 0.053245909512 
8.7890625 1.41252791882 0.0523158498108 
8.828125 1.33998322487 0.0525483638048 
8.90625 1.27232146263 0.0530133917928 
8.8125 1.18024551868 0.0524553582072 
8.7109375 1.0888671875 0.0518508180976 
8.71875 1.01199781895 0.0518973208964 
8.78125 0.940848231316 0.052269347012 
8.84375 0.868582606316 0.0526413694024 
8.90625 0.795200884342 0.0530133917928 
8.96875 0.720703125 0.0533854179084 
9.0390625 0.645647346973 0.0538039430976 
9.1015625 0.56884765625 0.054175965488 
9.171875 0.491350442171 0.0545944944024 
9.2421875 0.41259765625 0.0550130195916 
9.3125 0.332589298487 0.055431548506 
9.3828125 0.251325339079 0.0558500736952 
9.453125 0.168805807829 0.0562686026096 
9.5234375 0.0850306898355 0.0566871277988 
9.59375 0.0 0.057105652988 
9.671875 -0.0863560289145 0.0575706847012 
9.75 -0.174107149243 0.0580357126892 
9.828125 -0.263253360987 0.0585007444024 
9.90625 -0.353794634342 0.0589657723904 
9.984375 -0.445731014013 0.0594308041036 
10.0625 -0.5390625 0.0598958320916 
10.1484375 -0.63427734375 0.0604073666036 
10.234375 -0.731026768684 0.0609188973904 
10.3203125 -0.829310834408 0.0614304319024 
10.40625 -0.929129481316 0.0619419626892 
10.4921875 -1.0304826498 0.0624534972012 
10.578125 -1.13337051868 0.062965027988 
10.671875 -1.23869979382 0.0635230690241 
10.765625 -1.345703125 0.0640811026096 
10.859375 -1.45438063145 0.0646391361952 
10.953125 -1.56473219395 0.0651971697807 
11.0546875 -1.6779435873 0.0658017098904 
11.1484375 -1.79171311855 0.0663597434759 
11.25 -1.90848219395 0.0669642835855 
11.359375 -2.02845978737 0.0676153302193 
11.4609375 -2.14892578125 0.0682198628783 
11.5703125 -2.27273988724 0.068870909512 
11.6796875 -2.39850735664 0.0695219486952 
11.7890625 -2.52622771263 0.0701729878783 
11.8984375 -2.65590119362 0.070824034512 
22.234375 -5.16155147552 0.132347464561 
22.0625 -5.31863832474 0.131324410439 
21.875 -5.46875 0.130208328366 
21.703125 -5.61955928802 0.129185274243 
21.53125 -5.76729917526 0.128162205219 
21.359375 -5.91196966171 0.127139136195 
21.203125 -6.05803585052 0.126209080219 
21.03125 -6.19670772552 0.125186011195 
20.875 -6.33705377579 0.124255955219 
20.71875 -6.474609375 0.123325891793 
20.5625 -6.609375 0.122395835817 
20.40625 -6.74135065079 0.12146577239 
20.265625 -6.87583684921 0.120628722012 
20.109375 -7.00237178802 0.119698658586 
19.96875 -7.13169622421 0.118861608207 
19.8125 -7.25278997421 0.117931544781 
19.671875 -7.376953125 0.117094494402 
19.53125 -7.49860477448 0.116257444024 
19.40625 -7.62388372421 0.115513391793 
19.265625 -7.74065303802 0.114676341414 
19.125 -7.85491085052 0.113839283586 
19.0 -7.97321414948 0.113095238805 
18.859375 -8.08258914948 0.112258180976 
18.734375 -8.1962890625 0.111514136195 
18.609375 -8.30775642395 0.110770091414 
18.484375 -8.4169921875 0.110026039183 
18.359375 -8.52399539948 0.109281994402 
18.234375 -8.62876701355 0.108537949622 
18.109375 -8.73130607605 0.10779389739 
18.0 -8.83928585052 0.107142858207 
17.875 -8.9375 0.106398805976 
17.765625 -9.04143428802 0.105747766793 
17.71875 -9.17578125 0.10546875 
17.96875 -9.46568107605 0.106956847012 
18.234375 -9.76841545105 0.108537949622 
18.5 -10.0758924484 0.110119044781 
18.203125 -10.0767297745 0.108351930976 
18.09375 -10.177734375 0.107700891793 
18.03125 -10.303571701 0.107328869402 
19.65625 -11.4076452255 0.117001488805 
19.96875 -11.7672986984 0.118861608207 
20.296875 -12.1418809891 0.120814733207 
20.625 -12.522321701 0.122767858207 
27.859375 -17.1633644104 0.165829613805 
27.6875 -17.3046875 0.164806544781 
27.53125 -17.4528465271 0.163876488805 
27.359375 -17.5881690979 0.162853419781 
27.203125 -17.7306079865 0.161923363805 
27.046875 -17.870256424 0.160993307829 
26.890625 -18.0071144104 0.160063236952 
26.734375 -18.1411838531 0.159133180976 
26.578125 -18.2724609375 0.158203125 
26.421875 -18.4009494781 0.157273069024 
26.28125 -18.5376682281 0.156436011195 
26.125 -18.6607151031 0.155505955219 
25.984375 -18.7922706604 0.15466889739 
25.84375 -18.9213161469 0.153831839561 
25.6875 -19.036272049 0.152901783586 
25.546875 -19.16015625 0.152064725757 
25.40625 -19.2815284729 0.151227682829 
25.265625 -19.400390625 0.150390625 
25.140625 -19.5288791656 0.149646580219 
25.0 -19.6428565979 0.14880952239 
24.859375 -19.7543239594 0.147972464561 
24.734375 -19.875837326 0.147228419781 
24.59375 -19.982421875 0.146391361952 
24.46875 -20.0993309021 0.145647317171 
24.34375 -20.214006424 0.14490327239 
24.21875 -20.3264503479 0.14415922761 
24.09375 -20.436662674 0.143415182829 
23.96875 -20.5446434021 0.142671138048 
23.84375 -20.650390625 0.141927078366 
23.71875 -20.75390625 0.141183033586 
23.59375 -20.8551902771 0.140438988805 
23.484375 -20.9681911469 0.139787942171 
23.359375 -21.0651512146 0.13904389739 
23.25 -21.1741065979 0.138392850757 
23.125 -21.266740799 0.137648805976 
23.015625 -21.3716526031 0.136997774243 
22.890625 -21.4599609375 0.136253714561 
22.78125 -21.5608253479 0.135602682829 
22.671875 -21.6597385406 0.134951636195 
22.5625 -21.756696701 0.134300589561 
22.453125 -21.8517017365 0.133649557829 
22.34375 -21.9447536469 0.132998511195 
22.234375 -22.0358543396 0.132347464561 
17.8125 17.8125 -0.0530133917928 
17.890625 17.7308864594 -0.053245909512 
17.96875 17.6478786469 -0.053478423506 
18.046875 17.5634765625 -0.0537109375 
18.109375 17.4626121521 -0.0538969486952 
18.1875 17.3755588531 -0.0541294626892 
18.265625 17.287109375 -0.0543619804084 
18.34375 17.197265625 -0.0545944944024 
18.421875 17.1060276031 -0.0548270083964 
18.5 17.0133934021 -0.0550595223904 
18.578125 16.9193630219 -0.0552920401096 
18.671875 16.8380298615 -0.0555710569024 
18.75 16.741071701 -0.0558035708964 
18.828125 16.6427173615 -0.0560360848904 
18.90625 16.54296875 -0.0562686026096 
19.0 16.4553565979 -0.0565476194024 
19.078125 16.352678299 -0.0567801333964 
19.171875 16.2618579865 -0.0570591501892 
19.25 16.15625 -0.0572916679084 
19.34375 16.0622215271 -0.0575706847012 
19.421875 15.9536828995 -0.0578031986952 
19.515625 15.8564453125 -0.058082215488 
19.609375 15.7575330734 -0.058361236006 
19.6875 15.64453125 -0.05859375 
19.78125 15.5424108505 -0.0588727667928 
19.875 15.438615799 -0.0591517873108 
19.96875 15.333147049 -0.0594308041036 
20.0625 15.2260046005 -0.0597098208964 
20.15625 15.1171875 -0.0599888376892 
20.25 15.006696701 -0.0602678582072 
20.34375 14.89453125 -0.060546875 
20.4375 14.7806921005 -0.0608258917928 
20.546875 14.6763391495 -0.0611514151096 
20.640625 14.559012413 -0.0614304319024 
20.734375 14.4400110245 -0.0617094486952 
20.84375 14.330078125 -0.062034972012 
20.9375 14.2075891495 -0.0623139888048 
21.046875 14.0938892365 -0.0626395121217 
21.15625 13.9782361984 -0.062965027988 
21.25 13.850446701 -0.0632440447807 
21.359375 13.7310266495 -0.0635695680976 
21.46875 13.6096544266 -0.0638950914145 
21.578125 13.486328125 -0.0642206072807 
21.6875 13.3610486984 -0.0645461305976 
21.796875 13.2338171005 -0.0648716539145 
21.90625 13.104631424 -0.0651971697807 
22.015625 12.973493576 -0.0655226930976 
22.125 12.8404016495 -0.0658482164145 
22.25 12.7142858505 -0.0662202388048 
22.359375 12.5771484375 -0.0665457621217 
22.484375 12.4467077255 -0.066917784512 
22.59375 12.305524826 -0.0672433003783 
22.71875 12.170759201 -0.0676153302193 
22.828125 12.0255298615 -0.0679408460855 
22.953125 11.8864393234 -0.0683128684759 
23.078125 11.7451171875 -0.0686848983169 
23.203125 11.6015625 -0.0690569207072 
15.8359375 7.77657651901 -0.047130767256 
16.09375 7.75948667526 -0.0478980652988 
15.796875 7.47530698776 -0.0470145083964 
15.578125 7.23270082474 -0.046363465488 
15.2421875 6.94063901901 -0.0453636534512 
14.9140625 6.65806341171 -0.0443870909512 
14.421875 6.3095703125 -0.0429222472012 
14.0234375 6.01004457474 -0.041736420244 
13.9609375 5.85860776901 -0.0415504090488 
14.046875 5.76925230026 -0.0418061763048 
13.8828125 5.57791566849 -0.0413178950548 
13.625 5.35267877579 -0.040550597012 
13.375 5.13504457474 -0.039806548506 
13.125 4.921875 -0.0390625 
12.8984375 4.72174930573 -0.0383882075548 
12.671875 4.52566957474 -0.0377139151096 
12.453125 4.33635616302 -0.0370628722012 
12.2421875 4.15359926224 -0.0364350825548 
12.0390625 3.97719025612 -0.0358305424452 
11.84375 3.80691957474 -0.0352492555976 
11.6484375 3.64013671875 -0.03466796875 
11.46875 3.48158478737 -0.0341331847012 
10.7109375 3.15590119362 -0.0318777896464 
10.65625 3.04464292526 -0.031715027988 
10.5 2.90625 -0.03125 
10.34375 2.77064728737 -0.0307849701494 
10.3203125 2.67222380638 -0.0307152159512 
10.171875 2.54296875 -0.0302734375 
10.0234375 2.41636443138 -0.0298316590488 
9.8828125 2.29422426224 -0.029413131997 
9.75 2.17633938789 -0.0290178563446 
9.6171875 2.06082582474 -0.0286225825548 
9.484375 1.94768416882 -0.0282273069024 
8.8984375 1.74790740013 -0.026483444497 
9.15625 1.716796875 -0.0272507444024 
9.0390625 1.61411833763 -0.0269019715488 
8.9453125 1.51750838757 -0.026622954756 
8.7890625 1.41252791882 -0.0261579249054 
8.828125 1.33998322487 -0.0262741819024 
8.90625 1.27232146263 -0.0265066958964 
8.8125 1.18024551868 -0.0262276791036 
8.7109375 1.0888671875 -0.0259254090488 
8.71875 1.01199781895 -0.0259486604482 
8.78125 0.940848231316 -0.026134673506 
8.84375 0.868582606316 -0.0263206847012 
8.90625 0.795200884342 -0.0265066958964 
8.96875 0.720703125 -0.0266927089542 
9.0390625 0.645647346973 -0.0269019715488 
9.1015625 0.56884765625 -0.027087982744 
9.171875 0.491350442171 -0.0272972472012 
9.2421875 0.41259765625 -0.0275065097958 
9.3125 0.332589298487 -0.027715774253 
9.3828125 0.251325339079 -0.0279250368476 
9.453125 0.168805807829 -0.0281343013048 
9.5234375 0.0850306898355 -0.0283435638994 
9.59375 0.0 -0.028552826494 
9.671875 -0.0863560289145 -0.0287853423506 
9.75 -0.174107149243 -0.0290178563446 
9.828125 -0.263253360987 -0.0292503722012 
9.90625 -0.353794634342 -0.0294828861952 
9.984375 -0.445731014013 -0.0297154020518 
10.0625 -0.5390625 -0.0299479160458 
10.1484375 -0.63427734375 -0.0302036833018 
10.234375 -0.731026768684 -0.0304594486952 
10.3203125 -0.829310834408 -0.0307152159512 
10.40625 -0.929129481316 -0.0309709813446 
10.4921875 -1.0304826498 -0.0312267486006 
10.578125 -1.13337051868 -0.031482513994 
10.671875 -1.23869979382 -0.031761534512 
10.765625 -1.345703125 -0.0320405513048 
10.859375 -1.45438063145 -0.0323195680976 
10.953125 -1.56473219395 -0.0325985848904 
11.0546875 -1.6779435873 -0.0329008549452 
11.1484375 -1.79171311855 -0.033179871738 
11.25 -1.90848219395 -0.0334821417928 
11.359375 -2.02845978737 -0.0338076651096 
11.4609375 -2.14892578125 -0.0341099314392 
11.5703125 -2.27273988724 -0.034435454756 
11.6796875 -2.39850735664 -0.0347609743476 
11.7890625 -2.52622771263 -0.0350864939392 
11.8984375 -2.65590119362 -0.035412017256 
22.234375 -5.16155147552 -0.0661737322807 
22.0625 -5.31863832474 -0.0656622052193 
21.875 -5.46875 -0.0651041641831 
21.703125 -5.61955928802 -0.0645926371217 
21.53125 -5.76729917526 -0.0640811026096 
21.359375 -5.91196966171 -0.0635695680976 
21.203125 -6.05803585052 -0.0631045401096 
21.03125 -6.19670772552 -0.0625930055976 
20.875 -6.33705377579 -0.0621279776096 
20.71875 -6.474609375 -0.0616629458964 
20.5625 -6.609375 -0.0611979179084 
20.40625 -6.74135065079 -0.0607328861952 
20.265625 -6.87583684921 -0.060314361006 
20.109375 -7.00237178802 -0.0598493292928 
19.96875 -7.13169622421 -0.0594308041036 
19.8125 -7.25278997421 -0.0589657723904 
19.671875 -7.376953125 -0.0585472472012 
19.53125 -7.49860477448 -0.058128722012 
19.40625 -7.62388372421 -0.0577566958964 
19.265625 -7.74065303802 -0.0573381707072 
19.125 -7.85491085052 -0.0569196417928 
19.0 -7.97321414948 -0.0565476194024 
18.859375 -8.08258914948 -0.056129090488 
18.734375 -8.1962890625 -0.0557570680976 
18.609375 -8.30775642395 -0.0553850457072 
18.484375 -8.4169921875 -0.0550130195916 
18.359375 -8.52399539948 -0.0546409972012 
18.234375 -8.62876701355 -0.0542689748108 
18.109375 -8.73130607605 -0.0538969486952 
18.0 -8.83928585052 -0.0535714291036 
17.875 -8.9375 -0.053199402988 
17.765625 -9.04143428802 -0.0528738833964 
17.71875 -9.17578125 -0.052734375 
17.96875 -9.46568107605 -0.053478423506 
18.234375 -9.76841545105 -0.0542689748108 
18.5 -10.0758924484 -0.0550595223904 
18.25 -10.102678299 -0.0543154776096 
18.109375 -10.1865234375 -0.0538969486952 
18.0625 -10.321428299 -0.0537574402988 
19.65625 -11.4076452255 -0.0585007444024 
19.96875 -11.7672986984 -0.0594308041036 
20.296875 -12.1418809891 -0.0604073666036 
20.625 -12.522321701 -0.0613839291036 
27.859375 -17.1633644104 -0.0829148069024 
27.6875 -17.3046875 -0.0824032723904 
27.53125 -17.4528465271 -0.0819382444024 
27.359375 -17.5881690979 -0.0814267098904 
27.203125 -17.7306079865 -0.0809616819024 
27.046875 -17.870256424 -0.0804966539145 
26.890625 -18.0071144104 -0.0800316184759 
26.734375 -18.1411838531 -0.079566590488 
26.578125 -18.2724609375 -0.0791015625 
26.421875 -18.4009494781 -0.078636534512 
26.28125 -18.5376682281 -0.0782180055976 
26.125 -18.6607151031 -0.0777529776096 
25.984375 -18.7922706604 -0.0773344486952 
25.84375 -18.9213161469 -0.0769159197807 
25.6875 -19.036272049 -0.0764508917928 
25.546875 -19.16015625 -0.0760323628783 
25.40625 -19.2815284729 -0.0756138414145 
25.265625 -19.400390625 -0.0751953125 
25.140625 -19.5288791656 -0.0748232901096 
25.0 -19.6428565979 -0.0744047611952 
24.859375 -19.7543239594 -0.0739862322807 
24.734375 -19.875837326 -0.0736142098904 
24.59375 -19.982421875 -0.0731956809759 
24.46875 -20.0993309021 -0.0728236585855 
24.34375 -20.214006424 -0.0724516361952 
24.21875 -20.3264503479 -0.0720796138048 
24.09375 -20.436662674 -0.0717075914145 
23.96875 -20.5446434021 -0.0713355690241 
23.84375 -20.650390625 -0.0709635391831 
23.71875 -20.75390625 -0.0705915167928 
23.59375 -20.8551902771 -0.0702194944024 
23.484375 -20.9681911469 -0.0698939710855 
23.359375 -21.0651512146 -0.0695219486952 
23.25 -21.1741065979 -0.0691964253783 
23.125 -21.266740799 -0.068824402988 
23.015625 -21.3716526031 -0.0684988871217 
22.890625 -21.4599609375 -0.0681268572807 
22.78125 -21.5608253479 -0.0678013414145 
22.671875 -21.6597385406 -0.0674758180976 
22.5625 -21.756696701 -0.0671502947807 
22.453125 -21.8517017365 -0.0668247789145 
22.34375 -21.9447536469 -0.0664992555976 
22.234375 -22.0358543396 -0.0661737322807 
17.8125 17.8125 -0.212053567171 
17.890625 17.7308864594 -0.212983638048 
17.96875 17.6478786469 -0.213913694024 
18.03125 17.5482692719 -0.214657738805 
18.109375 17.4626121521 -0.215587794781 
18.1875 17.3755588531 -0.216517850757 
18.265625 17.287109375 -0.217447921634 
18.34375 17.197265625 -0.21837797761 
18.421875 17.1060276031 -0.219308033586 
18.5 17.0133934021 -0.220238089561 
18.578125 16.9193630219 -0.221168160439 
18.671875 16.8380298615 -0.22228422761 
18.75 16.741071701 -0.223214283586 
18.828125 16.6427173615 -0.224144339561 
18.90625 16.54296875 -0.225074410439 
19.0 16.4553565979 -0.22619047761 
19.078125 16.352678299 -0.227120533586 
19.171875 16.2618579865 -0.228236600757 
19.25 16.15625 -0.229166671634 
19.34375 16.0622215271 -0.230282738805 
19.421875 15.9536828995 -0.231212794781 
19.515625 15.8564453125 -0.232328861952 
19.609375 15.7575330734 -0.233444944024 
19.6875 15.64453125 -0.234375 
19.78125 15.5424108505 -0.235491067171 
19.875 15.438615799 -0.236607149243 
19.96875 15.333147049 -0.237723216414 
20.0625 15.2260046005 -0.238839283586 
20.15625 15.1171875 -0.239955350757 
20.25 15.006696701 -0.241071432829 
20.34375 14.89453125 -0.2421875 
20.4375 14.7806921005 -0.243303567171 
20.546875 14.6763391495 -0.244605660439 
20.640625 14.559012413 -0.24572172761 
20.734375 14.4400110245 -0.246837794781 
20.84375 14.330078125 -0.248139888048 
20.9375 14.2075891495 -0.249255955219 
21.046875 14.0938892365 -0.250558048487 
21.140625 13.967912674 -0.251674115658 
21.25 13.850446701 -0.252976179123 
21.359375 13.7310266495 -0.25427827239 
21.46875 13.6096544266 -0.255580365658 
21.578125 13.486328125 -0.256882429123 
21.6875 13.3610486984 -0.25818452239 
21.796875 13.2338171005 -0.259486615658 
21.90625 13.104631424 -0.260788679123 
22.015625 12.973493576 -0.26209077239 
22.125 12.8404016495 -0.263392865658 
22.25 12.7142858505 -0.264880955219 
22.359375 12.5771484375 -0.266183048487 
22.484375 12.4467077255 -0.267671138048 
22.59375 12.305524826 -0.268973201513 
22.71875 12.170759201 -0.270461320877 
22.828125 12.0255298615 -0.271763384342 
22.953125 11.8864393234 -0.273251473904 
23.078125 11.7451171875 -0.274739593267 
23.203125 11.6015625 -0.276227682829 
15.828125 7.77273988724 -0.188430055976 
16.09375 7.75948667526 -0.191592261195 
15.796875 7.47530698776 -0.188058033586 
15.578125 7.23270082474 -0.185453861952 
15.2421875 6.94063901901 -0.181454613805 
14.9140625 6.65806341171 -0.177548363805 
14.609375 6.3916015625 -0.173921138048 
14.0234375 6.01004457474 -0.166945680976 
13.9609375 5.85860776901 -0.166201636195 
14.046875 5.76925230026 -0.167224705219 
13.8828125 5.57791566849 -0.165271580219 
13.625 5.35267877579 -0.162202388048 
13.375 5.13504457474 -0.159226194024 
13.125 4.921875 -0.15625 
12.8984375 4.72174930573 -0.153552830219 
12.671875 4.52566957474 -0.150855660439 
12.453125 4.33635616302 -0.148251488805 
12.2421875 4.15359926224 -0.145740330219 
12.0390625 3.97719025612 -0.143322169781 
11.84375 3.80691957474 -0.14099702239 
11.6484375 3.64013671875 -0.138671875 
11.46875 3.48158478737 -0.136532738805 
10.7109375 3.15590119362 -0.127511158586 
10.65625 3.04464292526 -0.126860111952 
10.5 2.90625 -0.125 
10.4765625 2.80622220039 -0.124720983207 
10.3203125 2.67222380638 -0.122860863805 
10.171875 2.54296875 -0.12109375 
10.0234375 2.41636443138 -0.119326636195 
9.8828125 2.29422426224 -0.117652527988 
9.75 2.17633938789 -0.116071425378 
9.6171875 2.06082582474 -0.114490330219 
9.484375 1.94768416882 -0.11290922761 
8.875 1.74330353737 -0.105654761195 
9.15625 1.716796875 -0.10900297761 
9.0390625 1.61411833763 -0.107607886195 
8.9453125 1.51750838757 -0.106491819024 
8.7890625 1.41252791882 -0.104631699622 
8.828125 1.33998322487 -0.10509672761 
8.90625 1.27232146263 -0.106026783586 
8.8125 1.18024551868 -0.104910716414 
8.7109375 1.0888671875 -0.103701636195 
8.71875 1.01199781895 -0.103794641793 
8.78125 0.940848231316 -0.104538694024 
8.84375 0.868582606316 -0.105282738805 
8.90625 0.795200884342 -0.106026783586 
8.96875 0.720703125 -0.106770835817 
9.0390625 0.645647346973 -0.107607886195 
9.1015625 0.56884765625 -0.108351930976 
9.171875 0.491350442171 -0.109188988805 
9.2421875 0.41259765625 -0.110026039183 
9.3125 0.332589298487 -0.110863097012 
9.3828125 0.251325339079 -0.11170014739 
9.453125 0.168805807829 -0.112537205219 
9.5234375 0.0850306898355 -0.113374255598 
9.59375 0.0 -0.114211305976 
9.671875 -0.0863560289145 -0.115141369402 
9.75 -0.174107149243 -0.116071425378 
9.828125 -0.263253360987 -0.117001488805 
9.90625 -0.353794634342 -0.117931544781 
9.984375 -0.445731014013 -0.118861608207 
10.0625 -0.5390625 -0.119791664183 
10.1484375 -0.63427734375 -0.120814733207 
10.234375 -0.731026768684 -0.121837794781 
10.3203125 -0.829310834408 -0.122860863805 
10.40625 -0.929129481316 -0.123883925378 
10.4921875 -1.0304826498 -0.124906994402 
10.578125 -1.13337051868 -0.125930055976 
10.671875 -1.23869979382 -0.127046138048 
10.765625 -1.345703125 -0.128162205219 
10.859375 -1.45438063145 -0.12927827239 
10.953125 -1.56473219395 -0.130394339561 
11.0546875 -1.6779435873 -0.131603419781 
11.1484375 -1.79171311855 -0.132719486952 
11.25 -1.90848219395 -0.133928567171 
11.359375 -2.02845978737 -0.135230660439 
11.4609375 -2.14892578125 -0.136439725757 
11.5703125 -2.27273988724 -0.137741819024 
11.6796875 -2.39850735664 -0.13904389739 
11.7890625 -2.52622771263 -0.140345975757 
11.8984375 -2.65590119362 -0.141648069024 
22.234375 -5.16155147552 -0.264694929123 
22.0625 -5.31863832474 -0.262648820877 
21.875 -5.46875 -0.260416656733 
21.703125 -5.61955928802 -0.258370548487 
21.53125 -5.76729917526 -0.256324410439 
21.359375 -5.91196966171 -0.25427827239 
21.203125 -6.05803585052 -0.252418160439 
21.03125 -6.19670772552 -0.25037202239 
20.875 -6.33705377579 -0.248511910439 
20.71875 -6.474609375 -0.246651783586 
20.5625 -6.609375 -0.244791671634 
20.40625 -6.74135065079 -0.242931544781 
20.265625 -6.87583684921 -0.241257444024 
20.109375 -7.00237178802 -0.239397317171 
19.96875 -7.13169622421 -0.237723216414 
19.8125 -7.25278997421 -0.235863089561 
19.671875 -7.376953125 -0.234188988805 
19.53125 -7.49860477448 -0.232514888048 
19.40625 -7.62388372421 -0.231026783586 
19.265625 -7.74065303802 -0.229352682829 
19.125 -7.85491085052 -0.227678567171 
19.0 -7.97321414948 -0.22619047761 
18.859375 -8.08258914948 -0.224516361952 
18.734375 -8.1962890625 -0.22302827239 
18.609375 -8.30775642395 -0.221540182829 
18.484375 -8.4169921875 -0.220052078366 
18.359375 -8.52399539948 -0.218563988805 
18.234375 -8.62876701355 -0.217075899243 
18.109375 -8.73130607605 -0.215587794781 
18.0 -8.83928585052 -0.214285716414 
17.875 -8.9375 -0.212797611952 
17.765625 -9.04143428802 -0.211495533586 
17.71875 -9.17578125 -0.2109375 
17.96875 -9.46568107605 -0.213913694024 
18.234375 -9.76841545105 -0.217075899243 
18.5 -10.0758924484 -0.220238089561 
18.25 -10.102678299 -0.217261910439 
18.109375 -10.1865234375 -0.215587794781 
18.0625 -10.321428299 -0.215029761195 
19.65625 -11.4076452255 -0.23400297761 
19.96875 -11.7672986984 -0.237723216414 
17.765625 -10.6276502609 -0.211495533586 
17.71875 -10.7578125 -0.2109375 
27.859375 -17.1633644104 -0.33165922761 
27.6875 -17.3046875 -0.329613089561 
17.40625 -11.034318924 -0.207217261195 
27.359375 -17.5881690979 -0.325706839561 
27.203125 -17.7306079865 -0.32384672761 
27.046875 -17.870256424 -0.321986615658 
26.890625 -18.0071144104 -0.320126473904 
26.734375 -18.1411838531 -0.318266361952 
26.578125 -18.2724609375 -0.31640625 
26.421875 -18.4009494781 -0.314546138048 
26.28125 -18.5376682281 -0.31287202239 
26.125 -18.6607151031 -0.311011910439 
25.984375 -18.7922706604 -0.309337794781 
25.84375 -18.9213161469 -0.307663679123 
25.6875 -19.036272049 -0.305803567171 
25.546875 -19.16015625 -0.304129451513 
25.40625 -19.2815284729 -0.302455365658 
25.265625 -19.400390625 -0.30078125 
25.140625 -19.5288791656 -0.299293160439 
25.0 -19.6428565979 -0.297619044781 
24.859375 -19.7543239594 -0.295944929123 
24.734375 -19.875837326 -0.294456839561 
24.59375 -19.982421875 -0.292782723904 
24.46875 -20.0993309021 -0.291294634342 
24.34375 -20.214006424 -0.289806544781 
24.21875 -20.3264503479 -0.288318455219 
24.09375 -20.436662674 -0.286830365658 
23.96875 -20.5446434021 -0.285342276096 
23.84375 -20.650390625 -0.283854156733 
23.71875 -20.75390625 -0.282366067171 
23.59375 -20.8551902771 -0.28087797761 
23.46875 -20.954240799 -0.279389888048 
23.359375 -21.0651512146 -0.278087794781 
23.234375 -21.1598777771 -0.276599705219 
23.125 -21.266740799 -0.275297611952 
23.015625 -21.3716526031 -0.273995548487 
22.890625 -21.4599609375 -0.272507429123 
22.78125 -21.5608253479 -0.271205365658 
22.671875 -21.6597385406 -0.26990327239 
22.5625 -21.756696701 -0.268601179123 
22.453125 -21.8517017365 -0.267299115658 
22.34375 -21.9447536469 -0.26599702239 
22.234375 -22.0358543396 -0.264694929123 
17.8125 17.8125 -0.37109375 
17.890625 17.7308864594 -0.372721344233 
17.96875 17.6478786469 -0.374348968267 
18.03125 17.5482692719 -0.375651031733 
18.109375 17.4626121521 -0.377278655767 
18.1875 17.3755588531 -0.37890625 
18.265625 17.287109375 -0.380533844233 
18.34375 17.197265625 -0.382161468267 
18.421875 17.1060276031 -0.3837890625 
18.5 17.0133934021 -0.385416656733 
18.578125 16.9193630219 -0.387044280767 
18.671875 16.8380298615 -0.388997405767 
18.75 16.741071701 -0.390625 
18.828125 16.6427173615 -0.392252594233 
18.90625 16.54296875 -0.393880218267 
19.0 16.4553565979 -0.395833343267 
19.078125 16.352678299 -0.3974609375 
19.171875 16.2618579865 -0.3994140625 
19.25 16.15625 -0.401041656733 
19.34375 16.0622215271 -0.402994781733 
19.421875 15.9536828995 -0.404622405767 
19.515625 15.8564453125 -0.406575530767 
19.609375 15.7575330734 -0.408528655767 
19.6875 15.64453125 -0.41015625 
19.78125 15.5424108505 -0.412109375 
19.875 15.438615799 -0.4140625 
19.96875 15.333147049 -0.416015625 
20.0625 15.2260046005 -0.41796875 
20.15625 15.1171875 -0.419921875 
20.25 15.006696701 -0.421875 
20.34375 14.89453125 -0.423828125 
20.4375 14.7806921005 -0.42578125 
20.546875 14.6763391495 -0.428059905767 
20.640625 14.559012413 -0.430013030767 
20.734375 14.4400110245 -0.431966155767 
20.84375 14.330078125 -0.434244781733 
20.9375 14.2075891495 -0.436197906733 
21.046875 14.0938892365 -0.4384765625 
21.140625 13.967912674 -0.4404296875 
21.25 13.850446701 -0.442708343267 
21.359375 13.7310266495 -0.444986969233 
21.46875 13.6096544266 -0.447265625 
21.578125 13.486328125 -0.449544280767 
21.6875 13.3610486984 -0.451822906733 
21.796875 13.2338171005 -0.4541015625 
21.90625 13.104631424 -0.456380218267 
22.015625 12.973493576 -0.458658844233 
22.125 12.8404016495 -0.4609375 
22.25 12.7142858505 -0.463541656733 
22.359375 12.5771484375 -0.4658203125 
22.484375 12.4467077255 -0.468424469233 
22.59375 12.305524826 -0.470703125 
22.71875 12.170759201 -0.473307281733 
22.828125 12.0255298615 -0.4755859375 
22.953125 11.8864393234 -0.478190094233 
23.078125 11.7451171875 -0.480794280767 
23.203125 11.6015625 -0.4833984375 
15.828125 7.77273988724 -0.329752594233 
16.09375 7.75948667526 -0.335286468267 
15.796875 7.47530698776 -0.3291015625 
15.578125 7.23270082474 -0.324544280767 
15.2421875 6.94063901901 -0.317545562983 
14.9140625 6.65806341171 -0.310709625483 
14.609375 6.3916015625 -0.304361969233 
14.0234375 6.01004457474 -0.292154937983 
13.9609375 5.85860776901 -0.290852874517 
14.046875 5.76925230026 -0.292643219233 
13.8828125 5.57791566849 -0.289225250483 
13.625 5.35267877579 -0.283854156733 
13.375 5.13504457474 -0.278645843267 
13.125 4.921875 -0.2734375 
12.8984375 4.72174930573 -0.268717437983 
12.671875 4.52566957474 -0.263997405767 
12.453125 4.33635616302 -0.259440094233 
12.2421875 4.15359926224 -0.255045562983 
12.0390625 3.97719025612 -0.250813812017 
11.84375 3.80691957474 -0.246744796634 
11.6484375 3.64013671875 -0.24267578125 
11.46875 3.48158478737 -0.238932296634 
10.7109375 3.15590119362 -0.22314453125 
10.65625 3.04464292526 -0.222005203366 
10.5625 2.92354917526 -0.220052078366 
10.4765625 2.80622220039 -0.21826171875 
10.3203125 2.67222380638 -0.215006515384 
10.171875 2.54296875 -0.2119140625 
10.0234375 2.41636443138 -0.208821609616 
9.8828125 2.29422426224 -0.205891922116 
9.75 2.17633938789 -0.203125 
9.6171875 2.06082582474 -0.200358077884 
9.484375 1.94768416882 -0.197591140866 
8.875 1.74330353737 -0.184895828366 
9.15625 1.716796875 -0.190755203366 
9.0390625 1.61411833763 -0.188313797116 
8.9453125 1.51750838757 -0.186360672116 
8.7890625 1.41252791882 -0.18310546875 
8.828125 1.33998322487 -0.183919265866 
8.90625 1.27232146263 -0.185546875 
8.8125 1.18024551868 -0.18359375 
8.7109375 1.0888671875 -0.181477859616 
8.71875 1.01199781895 -0.181640625 
8.78125 0.940848231316 -0.182942703366 
8.84375 0.868582606316 -0.184244796634 
8.90625 0.795200884342 -0.185546875 
8.96875 0.720703125 -0.186848953366 
9.0390625 0.645647346973 -0.188313797116 
9.1015625 0.56884765625 -0.189615890384 
9.171875 0.491350442171 -0.191080734134 
9.2421875 0.41259765625 -0.192545577884 
9.3125 0.332589298487 -0.194010421634 
9.3828125 0.251325339079 -0.195475265384 
9.453125 0.168805807829 -0.196940109134 
9.5234375 0.0850306898355 -0.198404952884 
9.59375 0.0 -0.199869796634 
9.671875 -0.0863560289145 -0.201497390866 
9.75 -0.174107149243 -0.203125 
9.828125 -0.263253360987 -0.204752609134 
9.90625 -0.353794634342 -0.206380203366 
9.984375 -0.445731014013 -0.2080078125 
10.0625 -0.5390625 -0.209635421634 
10.1484375 -0.63427734375 -0.21142578125 
10.234375 -0.731026768684 -0.213216140866 
10.3203125 -0.829310834408 -0.215006515384 
10.40625 -0.929129481316 -0.216796875 
10.4921875 -1.0304826498 -0.218587234616 
10.578125 -1.13337051868 -0.220377609134 
10.671875 -1.23869979382 -0.222330734134 
10.765625 -1.345703125 -0.224283859134 
10.859375 -1.45438063145 -0.226236984134 
10.953125 -1.56473219395 -0.228190109134 
