22.21875 2.77734375 -2.24832582474 
22.109375 2.56626677513 -2.23725819588 
22.0 2.35714292526 -2.22619056702 
21.890625 2.14997220039 -2.21512269974 
21.78125 1.94475448132 -2.20405507088 
21.671875 1.74149000645 -2.19298744202 
21.5625 1.54017853737 -2.18191957474 
21.453125 1.3408203125 -2.17085194588 
21.34375 1.14341521263 -2.15978431702 
21.25 0.948660731316 -2.15029764175 
21.140625 0.755022346973 -2.13923001289 
21.046875 0.563755571842 -2.12974333763 
20.9375 0.373883932829 -2.11867570877 
20.84375 0.186104908586 -2.10918903351 
20.75 0.0 -2.09970235825 
20.65625 -0.184430807829 -2.09021568298 
20.546875 -0.366908490658 -2.07914805412 
20.453125 -0.5478515625 -2.06966137886 
20.359375 -0.727120518684 -2.06017494202 
20.265625 -0.904715418816 -2.05068826675 
20.171875 -1.08063614368 -2.04120159149 
20.078125 -1.2548828125 -2.03171491623 
19.984375 -1.42745530605 -2.02222847939 
19.90625 -1.599609375 -2.01432299614 
19.8125 -1.76897323132 -2.00483632088 
19.75 -1.93973219395 -1.99851191044 
20.171875 -2.16127228737 -2.04120159149 
20.609375 -2.39215970039 -2.08547258377 
20.6875 -2.5859375 -2.09337806702 
20.5 -2.74553561211 -2.07440471649 
20.515625 -2.93080353737 -2.07598590851 
22.578125 -3.42703676224 -2.28469133377 
23.125 -3.71651792526 -2.34002971649 
23.703125 -4.02106571198 -2.39853048325 
24.296875 -4.33872747421 -2.45861244202 
24.296875 -4.5556640625 -2.45861244202 
24.296875 -4.77260065079 -2.45861244202 
24.296875 -4.98953676224 -2.45861244202 
24.296875 -5.20647335052 -2.45861244202 
11.6875 -2.60881686211 -1.18266367912 
11.515625 -2.67326998711 -1.16527152061 
11.421875 -2.75348782539 -1.15578496456 
11.328125 -2.83203125 -1.14629840851 
11.2265625 -2.90687775612 -1.13602125645 
11.1171875 -2.97781801224 -1.12495350838 
11.0234375 -3.05113005638 -1.11546683311 
10.9921875 -3.140625 -1.1123046875 
24.296875 -7.15890073776 -2.45861244202 
24.296875 -7.37583684921 -2.45861244202 
24.296875 -7.5927734375 -2.45861244202 
24.296875 -7.80971002579 -2.45861244202 
24.296875 -8.02664661407 -2.45861244202 
24.296875 -8.24358272552 -2.45861244202 
24.296875 -8.46051883698 -2.45861244202 
14.3046875 -5.10881710052 -1.44749808311 
14.3515625 -5.25369691849 -1.45224142075 
14.234375 -5.337890625 -1.44038319588 
14.1953125 -5.44998598099 -1.43643045425 
14.171875 -5.56752252579 -1.43405878544 
14.1484375 -5.68463993073 -1.43168711662 
14.125 -5.80133914948 -1.42931544781 
14.109375 -5.9208984375 -1.427734375 
14.1875 -6.08035707474 -1.43563985825 
14.09375 -6.166015625 -1.42615330219 
24.296875 -10.846818924 -2.45861244202 
24.296875 -11.0637559891 -2.45861244202 
24.296875 -11.2806921005 -2.45861244202 
9.96875 -4.71735477448 -1.00874257088 
9.921875 -4.78376102448 -1.00399923325 
9.9140625 -4.86851263046 -1.00320875645 
9.9140625 -4.95703125 -1.00320875645 
9.90625 -5.04157352448 -1.00241816044 
9.90625 -5.13002252579 -1.00241816044 
9.90625 -5.21847105026 -1.00241816044 
9.8984375 -5.302734375 -1.00162756443 
9.8984375 -5.39111328125 -1.00162756443 
9.953125 -5.509765625 -1.00716149807 
24.296875 -13.6669921875 -2.45861244202 
24.296875 -13.883928299 -2.45861244202 
12.2109375 -7.08670473099 -1.23563063145 
11.9375 -7.03459835052 -1.20796132088 
11.75 -7.02901792526 -1.18898808956 
11.5546875 -7.01534605026 -1.16922438145 
17.609375 -10.8486328125 -1.78190100193 
17.453125 -10.908203125 -1.76609003544 
17.40625 -11.034318924 -1.76134669781 
17.34375 -11.149553299 -1.75502228737 
17.28125 -11.263671875 -1.74869787693 
17.21875 -11.3766736984 -1.74237346649 
17.15625 -11.4885606766 -1.73604905605 
16.65625 -11.3024549484 -1.68545389175 
15.734375 -10.8173828125 -1.59216892719 
15.1640625 -10.5606861115 -1.53445875645 
15.109375 -10.6575059891 -1.52892482281 
15.0625 -10.758928299 -1.52418160439 
15.0078125 -10.8538646698 -1.51864767075 
14.9609375 -10.953543663 -1.51390433311 
14.90625 -11.0465955734 -1.50837051868 
14.859375 -11.14453125 -1.50362718105 
14.8046875 -11.2357006073 -1.49809336662 
14.7578125 -11.3318920135 -1.49335002899 
14.7109375 -11.4272460938 -1.48860681057 
14.28125 -11.2209825516 -1.44512653351 
14.609375 -11.6092357635 -1.47832965851 
14.5625 -11.702009201 -1.47358632088 
14.140625 -11.4892578125 -1.43089652061 
14.46875 -11.8850450516 -1.46409964561 
14.421875 -11.9753065109 -1.45935642719 
14.0 -11.75 -1.41666662693 
13.953125 -11.8352403641 -1.41192340851 
13.90625 -11.9196424484 -1.40718007088 
13.8515625 -11.9964427948 -1.40164625645 
13.8125 -12.0859375 -1.39769339561 
13.765625 -12.1678295135 -1.39295017719 
13.71875 -12.248884201 -1.38820683956 
13.671875 -12.3291015625 -1.38346350193 
13.6328125 -12.415596962 -1.37951076031 
13.5859375 -12.4942102432 -1.37476754189 
13.546875 -12.579240799 -1.37081468105 
13.5 -12.65625 -1.36607146263 
13.453125 -12.732421875 -1.361328125 
13.4140625 -12.8152208328 -1.35737538338 
13.375 -12.897321701 -1.35342264175 
13.328125 -12.971121788 -1.34867930412 
13.2890625 -13.0517578125 -1.3447265625 
7.2578125 -7.19301080704 -0.734421491623 
10.9296875 10.9296875 -1.20356678963 
10.859375 10.7624158859 -1.19582402706 
10.8515625 10.657784462 -1.19496369362 
10.9140625 10.6217212677 -1.20184612274 
10.96875 10.577009201 -1.20786833763 
10.8671875 10.3820447922 -1.1966843605 
10.765625 10.1888952255 -1.18550038338 
10.6640625 9.99755859375 -1.17431640625 
10.5625 9.80803585052 -1.16313242912 
10.46875 9.62751102448 -1.15280878544 
10.375 9.44866085052 -1.14248514175 
10.28125 9.271484375 -1.13216149807 
10.1875 9.09598255157 -1.12183785439 
10.09375 8.92215442657 -1.11151409149 
10.0078125 8.7568359375 -1.10205078125 
9.921875 8.59305286407 -1.09258747101 
9.8359375 8.43080329895 -1.08312404156 
9.75 8.27008914948 -1.07366073132 
9.6640625 8.11090946198 -1.06419730186 
9.5859375 7.95975160599 -1.05559432507 
9.5078125 7.80998897552 -1.04699122906 
8.7734375 7.12841796875 -0.966122567654 
8.703125 6.99358272552 -0.958379864693 
8.6328125 6.86000299454 -0.950637102127 
8.5625 6.72767877579 -0.942894339561 
8.4921875 6.59661006927 -0.935151576996 
8.5078125 6.53278446198 -0.936872184277 
8.5234375 6.46868038177 -0.938592791557 
8.5390625 6.404296875 -0.940313458443 
8.484375 6.28752803802 -0.934291303158 
8.515625 6.23465394974 -0.937732517719 
8.453125 6.11342096329 -0.930850088596 
8.3828125 5.98772335052 -0.923107326031 
8.3203125 5.86879205704 -0.916224896908 
8.2578125 5.7509765625 -0.909342467785 
8.1953125 5.63427734375 -0.902459979057 
8.140625 5.52399539948 -0.896437883377 
8.078125 5.40945863724 -0.889555454254 
8.0234375 5.30119991302 -0.883533298969 
7.96484375 5.19137144089 -0.877081036568 
7.90625 5.08258914948 -0.870628714561 
7.79296875 4.94018554688 -0.858154296875 
7.78515625 4.86572265625 -0.857293963432 
7.640625 4.70717096329 -0.841378331184 
7.65234375 4.64606571198 -0.842668831348 
7.7109375 4.61279296875 -0.84912109375 
7.7734375 4.58077573776 -0.856003522873 
7.7578125 4.50230169296 -0.854282915592 
7.70703125 4.40401792526 -0.848690927029 
7.65625 4.306640625 -0.843098938465 
7.71484375 4.27071714401 -0.849551260471 
7.78125 4.23800230026 -0.856863856316 
7.84765625 4.2041015625 -0.86417645216 
7.9140625 4.16901493073 -0.871489048004 
7.98046875 4.13274288177 -0.878801643848 
8.046875 4.09528446198 -0.886114239693 
8.1171875 4.05859375 -0.893856942654 
8.1875 4.02064752579 -0.901599705219 
8.2578125 3.9814453125 -0.909342467785 
8.3359375 3.94468474388 -0.917945504189 
8.40625 3.90290188789 -0.925688266754 
8.484375 3.86342072487 -0.934291303158 
8.5625 3.82254457474 -0.942894339561 
8.640625 3.7802734375 -0.951497375965 
8.7265625 3.73995542526 -0.960960745811 
8.8046875 3.69482421875 -0.969563782215 
8.890625 3.65150666237 -0.979027152061 
8.9765625 3.60665464401 -0.988490521908 
9.0625 3.56026792526 -0.997953891754 
9.1484375 3.51234650612 -1.007417202 
9.2421875 3.4658203125 -1.01774084568 
9.3359375 3.41761994362 -1.02806448936 
9.4296875 3.36774563789 -1.03838825226 
9.5234375 3.31619691849 -1.04871189594 
9.625 3.265625 -1.05989587307 
9.71875 3.21065855026 -1.07021951675 
9.828125 3.15904021263 -1.08226370811 
9.9296875 3.10302734375 -1.09344768524 
10.0390625 3.04757261276 -1.10549199581 
10.1484375 2.99016451836 -1.11753630638 
10.2578125 2.93080353737 -1.12958049774 
10.3671875 2.86948943138 -1.14162480831 
10.484375 2.80831480026 -1.15452933311 
10.609375 2.7470703125 -1.16829431057 
10.7265625 2.681640625 -1.18119883537 
10.8515625 2.61600160599 -1.19496369362 
10.9765625 2.54813051224 -1.20872855186 
11.109375 2.47977113724 -1.22335374355 
11.2421875 2.40904021263 -1.23797893524 
11.3828125 2.33754181862 -1.25346446037 
11.5234375 2.26353240013 -1.2689499855 
11.6640625 2.18701171875 -1.28443551064 
11.8125 2.109375 -1.30078125 
11.9609375 2.02908754349 -1.31712698936 
22.359375 3.59347105026 -2.46219301224 
22.359375 3.39383363724 -2.46219301224 
22.359375 3.19419646263 -2.46219301224 
22.328125 2.99037384987 -2.45875191689 
22.21875 2.77734375 -2.44670748711 
22.109375 2.56626677513 -2.43466329575 
22.0 2.35714292526 -2.42261910439 
21.890625 2.14997220039 -2.41057467461 
21.78125 1.94475448132 -2.39853048325 
21.671875 1.74149000645 -2.38648629189 
21.5625 1.54017853737 -2.37444186211 
21.453125 1.3408203125 -2.36239767075 
21.34375 1.14341521263 -2.35035347939 
21.25 0.948660731316 -2.34002971649 
21.140625 0.755022346973 -2.32798552513 
21.046875 0.563755571842 -2.31766176224 
20.9375 0.373883932829 -2.30561757088 
20.84375 0.186104908586 -2.29529380798 
20.75 0.0 -2.28497028351 
20.65625 -0.184430807829 -2.27464652061 
20.546875 -0.366908490658 -2.26260232925 
20.453125 -0.5478515625 -2.25227856636 
20.359375 -0.727120518684 -2.24195504189 
20.265625 -0.904715418816 -2.23163127899 
20.171875 -1.08063614368 -2.22130775452 
20.078125 -1.2548828125 -2.21098399162 
19.984375 -1.42745530605 -2.20066022873 
19.90625 -1.599609375 -2.19205737114 
19.8125 -1.76897323132 -2.18173360825 
19.75 -1.93973219395 -2.17485117912 
20.171875 -2.16127228737 -2.22130775452 
20.609375 -2.39215970039 -2.26948475838 
20.6875 -2.5859375 -2.27808785439 
20.5 -2.74553561211 -2.25744056702 
20.515625 -2.93080353737 -2.25916099548 
22.359375 -3.39383363724 -2.46219301224 
22.359375 -3.59347105026 -2.46219301224 
22.359375 -3.79310822487 -2.46219301224 
22.359375 -3.99274563789 -2.46219301224 
22.359375 -4.1923828125 -2.46219301224 
22.359375 -4.39202022552 -2.46219301224 
22.359375 -4.59165716171 -2.46219301224 
22.359375 -4.79129457474 -2.46219301224 
11.65625 -2.60184144974 -1.28357517719 
11.546875 -2.68052458763 -1.27153086662 
11.4453125 -2.75913786888 -1.2603468895 
11.359375 -2.83984375 -1.25088357925 
11.25 -2.91294646263 -1.23883926868 
11.1484375 -2.98618865013 -1.22765529156 
11.046875 -3.0576171875 -1.21647131443 
11.015625 -3.14732146263 -1.21303009987 
10.96875 -3.23186373711 -1.20786833763 
22.359375 -6.78766727448 -2.46219301224 
22.359375 -6.9873046875 -2.46219301224 
22.359375 -7.18694210052 -2.46219301224 
22.359375 -7.38657903671 -2.46219301224 
12.4765625 -4.23311948776 -1.37390720844 
12.4765625 -4.34451723099 -1.37390720844 
12.4765625 -4.45591497421 -1.37390720844 
12.4765625 -4.56731319427 -1.37390720844 
12.4765625 -4.6787109375 -1.37390720844 
12.5625 -4.82310247421 -1.38337051868 
12.6015625 -4.95061397552 -1.38767206669 
12.6015625 -5.06312799454 -1.38767206669 
12.6015625 -5.17564153671 -1.38767206669 
12.59375 -5.28487730026 -1.38681173325 
12.5234375 -5.3671875 -1.37906897068 
12.4765625 -5.45849609375 -1.37390720844 
12.4765625 -5.56989383698 -1.37390720844 
12.4765625 -5.68129205704 -1.37390720844 
10.0 -4.64285707474 -1.10119044781 
9.9921875 -4.72844600677 -1.10033011436 
9.9375 -4.79129457474 -1.09430801868 
9.9375 -4.88002252579 -1.09430801868 
9.9375 -4.96875 -1.09430801868 
9.9375 -5.05747747421 -1.09430801868 
9.9296875 -5.14215946198 -1.09344768524 
9.9296875 -5.23081731796 -1.09344768524 
9.921875 -5.31528997421 -1.09258747101 
9.921875 -5.40387821198 -1.09258747101 
9.96875 -5.51841497421 -1.09774923325 
22.359375 -12.5771484375 -2.46219301224 
12.515625 -7.15178585052 -1.37820875645 
12.1171875 -7.03229618073 -1.33433318138 
11.875 -6.99776792526 -1.30766367912 
11.7109375 -7.00565004349 -1.28959727287 
11.5234375 -6.99637269974 -1.2689499855 
17.609375 -10.8486328125 -1.93912756443 
17.453125 -10.908203125 -1.92192149162 
17.40625 -11.034318924 -1.91675972939 
17.34375 -11.149553299 -1.90987718105 
17.28125 -11.263671875 -1.90299475193 
17.21875 -11.3766736984 -1.89611232281 
17.15625 -11.4885606766 -1.88922989368 
16.65625 -11.3024549484 -1.83417034149 
15.734375 -10.8173828125 -1.73265433311 
15.1640625 -10.5606861115 -1.66985213757 
15.109375 -10.6575059891 -1.66383004189 
15.0625 -10.758928299 -1.65866816044 
15.0078125 -10.8538646698 -1.65264606476 
14.9609375 -10.953543663 -1.64748418331 
14.90625 -11.0465955734 -1.64146208763 
14.859375 -11.14453125 -1.63630020618 
14.8046875 -11.2357006073 -1.6302781105 
14.7578125 -11.3318920135 -1.62511622906 
14.7109375 -11.4272460938 -1.61995446682 
14.3046875 -11.239397049 -1.57521855831 
14.609375 -11.6092357635 -1.60877048969 
14.5625 -11.702009201 -1.60360860825 
14.1640625 -11.5083007812 -1.55973303318 
14.46875 -11.8850450516 -1.59328496456 
14.421875 -11.9753065109 -1.58812308311 
14.0234375 -11.7696704865 -1.54424762726 
14.3203125 -12.1466932297 -1.5769392252 
14.28125 -12.241071701 -1.57263767719 
13.8828125 -12.0235071182 -1.52876210213 
14.1875 -12.4140625 -1.56231403351 
14.140625 -12.4993028641 -1.55715215206 
13.75 -12.2767858505 -1.51413691044 
14.046875 -12.6672716141 -1.54682850838 
14.0078125 -12.7571153641 -1.54252696037 
13.6328125 -12.5373182297 -1.50123238564 
13.5859375 -12.6155138016 -1.49607050419 
13.875 -13.0078125 -1.52790176868 
13.5390625 -12.8137559891 -1.49090862274 
13.4375 -12.8376111984 -1.47972464561 
13.7421875 -13.2513952255 -1.513276577 
13.6953125 -13.3284740448 -1.50811481476 
13.3125 -13.0747766495 -1.46595978737 
7.2578125 -7.19301080704 -0.799223423004 
10.9296875 10.9296875 -1.30115330219 
10.859375 10.7624158859 -1.29278278351 
10.8515625 10.657784462 -1.29185271263 
10.9140625 10.6217212677 -1.29929316044 
10.96875 10.577009201 -1.30580353737 
10.8671875 10.3820447922 -1.29371285439 
10.765625 10.1888952255 -1.28162205219 
10.6640625 9.99755859375 -1.26953125 
10.5625 9.80803585052 -1.25744044781 
10.46875 9.62751102448 -1.24627971649 
10.375 9.44866085052 -1.23511910439 
10.28125 9.271484375 -1.22395837307 
10.1875 9.09598255157 -1.21279764175 
10.09375 8.92215442657 -1.20163691044 
10.0078125 8.7568359375 -1.19140625 
9.921875 8.59305286407 -1.18117558956 
9.8359375 8.43080329895 -1.17094492912 
9.75 8.27008914948 -1.16071426868 
9.6640625 8.11090946198 -1.15048360825 
9.5859375 7.95975160599 -1.14118301868 
9.5078125 7.80998897552 -1.13188242912 
9.4296875 7.66162109375 -1.12258183956 
8.7734375 7.05008363724 -1.04445683956 
8.703125 6.91587591171 -1.03608632088 
8.7109375 6.84430789948 -1.03701639175 
8.7265625 6.77866888046 -1.03887653351 
8.671875 6.65876102448 -1.03236603737 
8.6015625 6.52797174454 -1.02399551868 
8.5390625 6.404296875 -1.01655507088 
8.484375 6.28752803802 -1.01004469395 
8.515625 6.23465394974 -1.01376485825 
8.453125 6.11342096329 -1.00632441044 
8.3828125 5.98772335052 -0.997953891754 
8.3203125 5.86879205704 -0.990513384342 
8.2578125 5.7509765625 -0.983072936535 
8.1953125 5.63427734375 -0.975632429123 
8.140625 5.52399539948 -0.969122052193 
8.078125 5.40945863724 -0.961681544781 
8.0234375 5.30119991302 -0.955171108246 
7.96484375 5.19137144089 -0.948195695877 
7.90625 5.08258914948 -0.941220223904 
7.8515625 4.97732973099 -0.934709846973 
7.796875 4.873046875 -0.928199410439 
7.640625 4.70717096329 -0.909598231316 
7.65234375 4.64606571198 -0.910993278027 
7.7109375 4.61279296875 -0.91796875 
7.7734375 4.58077573776 -0.925409197807 
7.7578125 4.50230169296 -0.923549115658 
7.70703125 4.40401792526 -0.917503714561 
7.65625 4.306640625 -0.911458313465 
7.71484375 4.27071714401 -0.918433785439 
7.78125 4.23800230026 -0.926339268684 
7.84765625 4.2041015625 -0.934244811535 
7.9140625 4.16901493073 -0.942150294781 
7.98046875 4.13274288177 -0.950055778027 
8.046875 4.09528446198 -0.957961320877 
8.1171875 4.05859375 -0.966331839561 
8.1875 4.02064752579 -0.974702358246 
8.2578125 3.9814453125 -0.983072936535 
8.3359375 3.94468474388 -0.992373526096 
8.40625 3.90290188789 -1.00074410439 
8.484375 3.86342072487 -1.01004469395 
8.5625 3.82254457474 -1.01934528351 
8.640625 3.7802734375 -1.02864587307 
8.7265625 3.73995542526 -1.03887653351 
8.8046875 3.69482421875 -1.04817712307 
8.890625 3.65150666237 -1.05840778351 
8.9765625 3.60665464401 -1.06863844395 
9.0625 3.56026792526 -1.07886910439 
9.1484375 3.51234650612 -1.08909964561 
9.2421875 3.4658203125 -1.10026037693 
9.3359375 3.41761994362 -1.11142110825 
9.4296875 3.36774563789 -1.12258183956 
9.5234375 3.31619691849 -1.13374257088 
9.625 3.265625 -1.14583337307 
9.71875 3.21065855026 -1.15699410439 
9.828125 3.15904021263 -1.17001485825 
9.9296875 3.10302734375 -1.18210566044 
10.0390625 3.04757261276 -1.19512653351 
10.1484375 2.99016451836 -1.20814728737 
10.2578125 2.93080353737 -1.22116816044 
10.3671875 2.86948943138 -1.23418903351 
10.484375 2.80831480026 -1.24813985825 
10.609375 2.7470703125 -1.26302087307 
10.7265625 2.681640625 -1.27697169781 
10.8515625 2.61600160599 -1.29185271263 
10.9765625 2.54813051224 -1.30673360825 
11.109375 2.47977113724 -1.32254469395 
11.2421875 2.40904021263 -1.33835566044 
11.3828125 2.33754181862 -1.35509669781 
11.5234375 2.26353240013 -1.37183785439 
11.6640625 2.18701171875 -1.38857889175 
11.8125 2.109375 -1.40625 
11.9609375 2.02908754349 -1.42392110825 
20.03125 3.21930813789 -2.38467264175 
20.03125 3.04045748711 -2.38467264175 
20.03125 2.86160707474 -2.38467264175 
20.03125 2.68275666237 -2.38467264175 
20.03125 2.50390625 -2.38467264175 
20.03125 2.32505583763 -2.38467264175 
20.03125 2.14620542526 -2.38467264175 
20.03125 1.96735489368 -2.38467264175 
20.03125 1.78850448132 -2.38467264175 
20.03125 1.60965406895 -2.38467264175 
20.03125 1.43080353737 -2.38467264175 
20.03125 1.251953125 -2.38467264175 
20.703125 1.10909593105 -2.46465778351 
20.703125 0.924246668816 -2.46465778351 
20.703125 0.739397346973 -2.46465778351 
20.703125 0.554547965527 -2.46465778351 
20.703125 0.369698673487 -2.46465778351 
20.703125 0.184849336743 -2.46465778351 
20.703125 0.0 -2.46465778351 
20.65625 -0.184430807829 -2.45907735825 
20.546875 -0.366908490658 -2.44605660439 
20.453125 -0.5478515625 -2.43489575386 
20.359375 -0.727120518684 -2.42373514175 
20.265625 -0.904715418816 -2.41257429123 
20.171875 -1.08063614368 -2.40141367912 
20.078125 -1.2548828125 -2.39025306702 
19.984375 -1.42745530605 -2.37909221649 
19.90625 -1.599609375 -2.36979174614 
19.8125 -1.76897323132 -2.35863089561 
19.75 -1.93973219395 -2.35119056702 
20.171875 -2.16127228737 -2.40141367912 
20.609375 -2.39215970039 -2.45349693298 
20.703125 -2.587890625 -2.46465778351 
20.703125 -2.77273988724 -2.46465778351 
20.703125 -2.95758938789 -2.46465778351 
20.703125 -3.14243865013 -2.46465778351 
20.703125 -3.32728791237 -2.46465778351 
20.703125 -3.51213717461 -2.46465778351 
20.703125 -3.69698667526 -2.46465778351 
20.703125 -3.8818359375 -2.46465778351 
20.703125 -4.06668519974 -2.46465778351 
20.703125 -4.25153446198 -2.46465778351 
20.703125 -4.43638372421 -2.46465778351 
11.6796875 -2.60707306862 -1.39043903351 
11.5703125 -2.68596529961 -1.37741816044 
11.4765625 -2.76667141914 -1.36625742912 
11.3828125 -2.845703125 -1.35509669781 
11.28125 -2.92103791237 -1.34300589561 
11.1796875 -2.99455904961 -1.33091521263 
11.078125 -3.06626677513 -1.31882441044 
10.9921875 -3.140625 -1.30859375 
10.953125 -3.22726011276 -1.30394339561 
20.703125 -6.28487730026 -2.46465778351 
20.703125 -6.4697265625 -2.46465778351 
20.703125 -6.65457582474 -2.46465778351 
20.703125 -6.83942508698 -2.46465778351 
20.703125 -7.02427434921 -2.46465778351 
20.703125 -7.20912408829 -2.46465778351 
11.8984375 -4.24944210052 -1.41648066044 
11.78125 -4.31277894974 -1.40252971649 
11.6953125 -4.3857421875 -1.39229905605 
11.640625 -4.46916866302 -1.38578867912 
11.59375 -4.5546875 -1.38020837307 
11.5546875 -4.64250850677 -1.37555801868 
11.546875 -4.74246644974 -1.37462794781 
11.546875 -4.84556341171 -1.37462794781 
11.546875 -4.94866085052 -1.37462794781 
11.546875 -5.0517578125 -1.37462794781 
11.546875 -5.15485477448 -1.37462794781 
11.546875 -5.25795221329 -1.37462794781 
10.015625 -4.65011167526 -1.19233632088 
9.9609375 -4.71365785599 -1.18582594395 
9.953125 -4.798828125 -1.18489587307 
9.953125 -4.8876953125 -1.18489587307 
9.9609375 -4.98046875 -1.18582594395 
9.9609375 -5.06940555573 -1.18582594395 
9.9609375 -5.15834283829 -1.18582594395 
9.953125 -5.2431640625 -1.18489587307 
9.9453125 -5.32784605026 -1.18396580219 
9.9375 -5.41238832474 -1.18303573132 
9.9375 -5.50111627579 -1.18303573132 
20.703125 -11.6455078125 -2.46465778351 
12.40625 -7.08928585052 -1.47693455219 
12.046875 -6.99148988724 -1.43415176868 
11.8203125 -6.96554136276 -1.40718007088 
11.6796875 -6.98695611954 -1.39043903351 
11.4921875 -6.97739934921 -1.36811757088 
17.609375 -10.8486328125 -2.09635424614 
17.453125 -10.908203125 -2.07775306702 
17.40625 -11.034318924 -2.07217264175 
17.34375 -11.149553299 -2.06473207474 
17.28125 -11.263671875 -2.05729174614 
17.21875 -11.3766736984 -2.04985117912 
17.15625 -11.4885606766 -2.04241061211 
16.65625 -11.3024549484 -1.98288691044 
15.734375 -10.8173828125 -1.87313985825 
15.1640625 -10.5606861115 -1.80524551868 
15.109375 -10.6575059891 -1.79873514175 
15.0625 -10.758928299 -1.79315471649 
15.0078125 -10.8538646698 -1.78664433956 
14.9609375 -10.953543663 -1.78106403351 
14.90625 -11.0465955734 -1.77455353737 
14.859375 -11.14453125 -1.76897323132 
14.8046875 -11.2357006073 -1.76246285439 
14.7578125 -11.3318920135 -1.75688242912 
14.7109375 -11.4272460938 -1.75130212307 
14.3046875 -11.239397049 -1.70293903351 
14.609375 -11.6092357635 -1.73921132088 
14.5625 -11.702009201 -1.73363089561 
14.1640625 -11.5083007812 -1.68619787693 
14.46875 -11.8850450516 -1.72247028351 
14.421875 -11.9753065109 -1.71688985825 
14.03125 -11.776227951 -1.67038691044 
14.3203125 -12.1466932297 -1.70479905605 
14.28125 -12.241071701 -1.70014882088 
13.8984375 -12.0370397568 -1.65457594395 
14.1875 -12.4140625 -1.68898808956 
14.140625 -12.4993028641 -1.68340778351 
13.7734375 -12.297712326 -1.63969492912 
14.046875 -12.6672716141 -1.67224705219 
14.0078125 -12.7571153641 -1.66759669781 
13.9609375 -12.8390760422 -1.66201639175 
13.9140625 -12.9202013016 -1.65643596649 
13.875 -13.0078125 -1.65178573132 
13.828125 -13.0873327255 -1.64620530605 
13.453125 -12.8525390625 -1.6015625 
13.7421875 -13.2513952255 -1.63597464561 
13.6953125 -13.3284740448 -1.63039433956 
13.3359375 -13.0977954865 -1.58761155605 
7.2578125 -7.19301080704 -0.864025294781 
10.9296875 10.9296875 -1.39873981476 
10.859375 10.7624158859 -1.38974142075 
10.8515625 10.657784462 -1.38874161243 
10.9140625 10.6217212677 -1.39674019814 
10.96875 10.577009201 -1.40373885632 
10.8671875 10.3820447922 -1.39074122906 
10.765625 10.1888952255 -1.37774372101 
10.6640625 9.99755859375 -1.36474609375 
10.5625 9.80803585052 -1.35174846649 
10.46875 9.62751102448 -1.33975076675 
10.375 9.44866085052 -1.32775294781 
10.28125 9.271484375 -1.31575524807 
10.1875 9.09598255157 -1.30375742912 
10.09375 8.92215442657 -1.29175972939 
10.0078125 8.7568359375 -1.28076171875 
9.921875 8.59305286407 -1.26976370811 
9.8359375 8.43080329895 -1.25876581669 
9.75 8.27008914948 -1.24776780605 
9.6640625 8.11090946198 -1.23676991463 
9.5859375 7.95975160599 -1.2267717123 
9.5078125 7.80998897552 -1.21677362919 
9.4296875 7.66162109375 -1.20677542686 
8.984375 7.21958684921 -1.14978611469 
8.8828125 7.05866336823 -1.13678848743 
8.8125 6.92410707474 -1.12779021263 
8.7421875 6.79080629349 -1.11879181862 
8.671875 6.65876102448 -1.10979354382 
8.6015625 6.52797174454 -1.1007951498 
8.5390625 6.404296875 -1.09279668331 
8.484375 6.28752803802 -1.08579802513 
8.515625 6.23465394974 -1.08979725838 
8.453125 6.11342096329 -1.08179879189 
8.3828125 5.98772335052 -1.07280039787 
8.3203125 5.86879205704 -1.06480193138 
8.2578125 5.7509765625 -1.05680334568 
8.1953125 5.63427734375 -1.04880487919 
8.140625 5.52399539948 -1.04180622101 
8.078125 5.40945863724 -1.03380763531 
8.0234375 5.30119991302 -1.02680897713 
7.96484375 5.19137144089 -1.01931035519 
7.90625 5.08258914948 -1.01181173325 
7.8515625 4.97732973099 -1.00481307507 
7.6953125 4.8095703125 -0.984816789627 
7.640625 4.70717096329 -0.977818071842 
7.65234375 4.64606571198 -0.979317784309 
7.7109375 4.61279296875 -0.98681640625 
7.7734375 4.58077573776 -0.994814932346 
7.7578125 4.50230169296 -0.992815315723 
7.70703125 4.40401792526 -0.986316502094 
7.65625 4.306640625 -0.979817688465 
7.71484375 4.27071714401 -0.987316310406 
7.78125 4.23800230026 -0.995814740658 
7.84765625 4.2041015625 -1.00431311131 
7.9140625 4.16901493073 -1.01281154156 
7.98046875 4.13274288177 -1.02130997181 
8.046875 4.09528446198 -1.02980840206 
8.1171875 4.05859375 -1.03880667686 
8.1875 4.02064752579 -1.04780507088 
8.2578125 3.9814453125 -1.05680334568 
8.3359375 3.94468474388 -1.066801548 
8.40625 3.90290188789 -1.07579982281 
8.484375 3.86342072487 -1.08579802513 
8.5625 3.82254457474 -1.09579610825 
8.640625 3.7802734375 -1.10579431057 
8.7265625 3.73995542526 -1.116792202 
8.8046875 3.69482421875 -1.12679040432 
8.890625 3.65150666237 -1.13778829575 
8.9765625 3.60665464401 -1.14878630638 
9.0625 3.56026792526 -1.15978419781 
9.1484375 3.51234650612 -1.17078220844 
9.2421875 3.4658203125 -1.18277990818 
9.3359375 3.41761994362 -1.19477772713 
9.4296875 3.36774563789 -1.20677542686 
9.5234375 3.31619691849 -1.21877324581 
9.625 3.265625 -1.23177087307 
9.71875 3.21065855026 -1.24376857281 
9.828125 3.15904021263 -1.25776600838 
9.9296875 3.10302734375 -1.27076363564 
10.0390625 3.04757261276 -1.284760952 
10.1484375 2.99016451836 -1.29875838757 
10.2578125 2.93080353737 -1.31275582314 
10.3671875 2.86948943138 -1.3267531395 
10.484375 2.80831480026 -1.34175038338 
10.609375 2.7470703125 -1.35774743557 
10.7265625 2.681640625 -1.37274456024 
10.8515625 2.61600160599 -1.38874161243 
10.9765625 2.54813051224 -1.40473866463 
11.109375 2.47977113724 -1.42173552513 
11.2421875 2.40904021263 -1.43873238564 
11.3828125 2.33754181862 -1.45672893524 
11.5234375 2.26353240013 -1.47472560406 
11.6640625 2.18701171875 -1.49272227287 
11.8125 2.109375 -1.51171875 
11.9609375 2.02908754349 -1.53071522713 
18.65625 2.99832582474 -2.38755583763 
18.65625 2.83175230026 -2.38755583763 
18.65625 2.66517853737 -2.38755583763 
18.65625 2.49860501289 -2.38755583763 
18.65625 2.33203125 -2.38755583763 
18.65625 2.16545748711 -2.38755583763 
18.65625 1.99888396263 -2.38755583763 
18.65625 1.83231031895 -2.38755583763 
18.65625 1.66573655605 -2.38755583763 
18.65625 1.49916291237 -2.38755583763 
18.65625 1.33258926868 -2.38755583763 
18.65625 1.166015625 -2.38755583763 
18.65625 0.999441981316 -2.38755583763 
18.65625 0.832868278027 -2.38755583763 
18.65625 0.666294634342 -2.38755583763 
18.65625 0.499720990658 -2.38755583763 
18.65625 0.333147317171 -2.38755583763 
19.265625 0.172014504671 -2.46554136276 
19.265625 0.0 -2.46554136276 
19.265625 -0.172014504671 -2.46554136276 
19.265625 -0.344029009342 -2.46554136276 
19.265625 -0.516043543816 -2.46554136276 
19.265625 -0.688058018684 -2.46554136276 
19.265625 -0.860072553158 -2.46554136276 
19.265625 -1.03208708763 -2.46554136276 
19.265625 -1.2041015625 -2.46554136276 
19.265625 -1.37611603737 -2.46554136276 
19.265625 -1.54813063145 -2.46554136276 
19.265625 -1.72014510632 -2.46554136276 
19.265625 -1.89215958118 -2.46554136276 
19.265625 -2.06417417526 -2.46554136276 
19.265625 -2.23618865013 -2.46554136276 
19.265625 -2.408203125 -2.46554136276 
19.265625 -2.58021759987 -2.46554136276 
19.265625 -2.75223207474 -2.46554136276 
19.265625 -2.92424654961 -2.46554136276 
19.265625 -3.09626126289 -2.46554136276 
19.265625 -3.26827573776 -2.46554136276 
19.265625 -3.44029021263 -2.46554136276 
19.265625 -3.6123046875 -2.46554136276 
19.265625 -3.78431916237 -2.46554136276 
19.265625 -3.95633363724 -2.46554136276 
19.265625 -4.12834835052 -2.46554136276 
11.7109375 -2.61404848099 -1.49872112274 
11.6015625 -2.69321990013 -1.48472380638 
11.5078125 -2.77420473099 -1.47272598743 
11.4140625 -2.853515625 -1.4607282877 
11.3125 -2.92912936211 -1.44773066044 
11.203125 -3.00083708763 -1.43373322487 
11.1015625 -3.07275390625 -1.42073571682 
11.0078125 -3.14508938789 -1.40873789787 
10.9765625 -3.23416566849 -1.40473866463 
10.96875 -3.32979917526 -1.40373885632 
19.265625 -6.0205078125 -2.46554136276 
19.265625 -6.19252252579 -2.46554136276 
19.265625 -6.36453676224 -2.46554136276 
19.265625 -6.53655147552 -2.46554136276 
19.265625 -6.70856571198 -2.46554136276 
12.0703125 -4.31082582474 -1.5447126627 
11.921875 -4.3642578125 -1.52571618557 
11.8203125 -4.4326171875 -1.51271855831 
11.7265625 -4.50216245651 -1.50072073936 
11.65625 -4.57924127579 -1.49172246456 
13.734375 -5.51827573776 -1.75767302513 
12.875 -5.28794622421 -1.64769339561 
13.765625 -5.77664613724 -1.76167225838 
13.78125 -5.90625 -1.763671875 
19.265625 -8.4287109375 -2.46554136276 
13.2421875 -5.91169071198 -1.69468474388 
10.046875 -4.57491636276 -1.28576076031 
10.0390625 -4.66099309921 -1.284760952 
9.9765625 -4.72105169296 -1.2767624855 
9.9765625 -4.81012821198 -1.2767624855 
9.9765625 -4.89920473099 -1.2767624855 
9.9765625 -4.98828125 -1.2767624855 
9.984375 -5.08133363724 -1.27776229382 
9.9765625 -5.16643428802 -1.2767624855 
9.96875 -5.25139522552 -1.27576267719 
9.9609375 -5.33621644974 -1.27476286888 
9.9609375 -5.42515325546 -1.27476286888 
9.953125 -5.509765625 -1.27376306057 
10.0078125 -5.62939453125 -1.28076171875 
12.265625 -7.00892877579 -1.56970798969 
11.984375 -6.95521783829 -1.53371465206 
11.765625 -6.93331480026 -1.50571990013 
11.6015625 -6.94022035599 -1.48472380638 
11.46875 -6.96316957474 -1.46772694588 
17.609375 -10.8486328125 -2.25358080864 
17.453125 -10.908203125 -2.23358440399 
17.40625 -11.034318924 -2.22758555412 
17.34375 -11.149553299 -2.21958708763 
17.28125 -11.263671875 -2.21158862114 
17.21875 -11.3766736984 -2.20358991623 
17.15625 -11.4885606766 -2.19559144974 
16.65625 -11.3024549484 -2.13160347939 
15.734375 -10.8173828125 -2.01362538338 
15.1640625 -10.5606861115 -1.9406388998 
15.109375 -10.6575059891 -1.93364024162 
15.0625 -10.758928299 -1.92764139175 
15.0078125 -10.8538646698 -1.92064261436 
14.9609375 -10.953543663 -1.9146437645 
14.90625 -11.0465955734 -1.90764510632 
14.859375 -11.14453125 -1.90164625645 
14.8046875 -11.2357006073 -1.89464747906 
14.7578125 -11.3318920135 -1.88864862919 
14.7109375 -11.4272460938 -1.88264977932 
14.2890625 -11.2271203995 -1.82865977287 
14.609375 -11.6092357635 -1.86965215206 
14.5625 -11.702009201 -1.86365330219 
14.1484375 -11.4956054688 -1.81066310406 
14.46875 -11.8850450516 -1.85165548325 
14.421875 -11.9753065109 -1.84565663338 
14.0078125 -11.7565565109 -1.79266643524 
14.3203125 -12.1466932297 -1.83265900612 
14.28125 -12.241071701 -1.82765996456 
13.875 -12.016740799 -1.77566969395 
14.1875 -12.4140625 -1.81566214561 
14.140625 -12.4993028641 -1.80966329575 
13.75 -12.2767858505 -1.75967264175 
14.046875 -12.6672716141 -1.79766559601 
14.0078125 -12.7571153641 -1.79266643524 
13.6328125 -12.5373182297 -1.74467539787 
13.59375 -12.6227674484 -1.73967635632 
13.875 -13.0078125 -1.77566969395 
13.828125 -13.0873327255 -1.76967072487 
13.453125 -12.8525390625 -1.7216796875 
13.7421875 -13.2513952255 -1.75867283344 
13.6953125 -13.3284740448 -1.75267386436 
13.328125 -13.0901231766 -1.70568263531 
7.2578125 -7.19301080704 -0.928827166557 
10.9296875 10.9296875 -1.49632620811 
10.859375 10.7624158859 -1.48670017719 
10.8515625 10.657784462 -1.48563063145 
10.9140625 10.6217212677 -1.49418711662 
10.96875 10.577009201 -1.50167405605 
10.8671875 10.3820447922 -1.48776972294 
10.765625 10.1888952255 -1.47386527061 
10.6640625 9.99755859375 -1.4599609375 
10.5625 9.80803585052 -1.44605660439 
10.46875 9.62751102448 -1.43322169781 
10.375 9.44866085052 -1.42038691044 
10.28125 9.271484375 -1.40755212307 
10.1875 9.09598255157 -1.39471721649 
10.09375 8.92215442657 -1.38188242912 
10.0078125 8.7568359375 -1.3701171875 
9.921875 8.59305286407 -1.35835194588 
9.8359375 8.43080329895 -1.34658670425 
9.75 8.27008914948 -1.33482146263 
9.6640625 8.11090946198 -1.32305622101 
9.5859375 7.95975160599 -1.31236052513 
9.5078125 7.80998897552 -1.30166482925 
9.4296875 7.66162109375 -1.29096913338 
8.984375 7.21958684921 -1.23000371456 
8.8828125 7.05866336823 -1.21609938145 
8.8125 6.92410707474 -1.20647323132 
8.7421875 6.79080629349 -1.19684708118 
8.671875 6.65876102448 -1.18722093105 
8.6015625 6.52797174454 -1.17759490013 
8.5390625 6.404296875 -1.16903829575 
8.4765625 6.28173828125 -1.16048181057 
8.5 6.22321414948 -1.16369044781 
8.453125 6.11342096329 -1.15727305412 
8.3828125 5.98772335052 -1.14764690399 
8.3203125 5.86879205704 -1.13909041882 
8.2578125 5.7509765625 -1.13053381443 
8.1953125 5.63427734375 -1.12197732925 
8.140625 5.52399539948 -1.11449027061 
8.078125 5.40945863724 -1.10593378544 
8.0234375 5.30119991302 -1.09844684601 
7.96484375 5.19137144089 -1.0904250145 
7.90625 5.08258914948 -1.08240330219 
7.8515625 4.97732973099 -1.07491624355 
7.6953125 4.8095703125 -1.05352497101 
7.640625 4.70717096329 -1.04603791237 
7.65234375 4.64606571198 -1.0476423502 
7.7109375 4.61279296875 -1.0556640625 
7.7734375 4.58077573776 -1.06422066689 
7.7578125 4.50230169296 -1.06208145618 
7.70703125 4.40401792526 -1.05512928963 
7.65625 4.306640625 -1.04817712307 
7.71484375 4.27071714401 -1.05619883537 
7.78125 4.23800230026 -1.06529021263 
7.84765625 4.2041015625 -1.07438147068 
7.9140625 4.16901493073 -1.08347284794 
7.98046875 4.13274288177 -1.0925642252 
8.046875 4.09528446198 -1.10165548325 
8.1171875 4.05859375 -1.11128163338 
8.1875 4.02064752579 -1.12090778351 
8.2578125 3.9814453125 -1.13053381443 
8.3359375 3.94468474388 -1.14122951031 
8.40625 3.90290188789 -1.15085566044 
8.484375 3.86342072487 -1.16155135632 
8.5625 3.82254457474 -1.17224705219 
8.640625 3.7802734375 -1.18294274807 
8.7265625 3.73995542526 -1.19470798969 
8.8046875 3.69482421875 -1.20540368557 
8.890625 3.65150666237 -1.21716892719 
8.9765625 3.60665464401 -1.22893416882 
9.0625 3.56026792526 -1.24069941044 
9.1484375 3.51234650612 -1.25246465206 
9.2421875 3.4658203125 -1.26529943943 
9.3359375 3.41761994362 -1.27813434601 
9.4296875 3.36774563789 -1.29096913338 
9.5234375 3.31619691849 -1.30380392075 
9.625 3.265625 -1.31770837307 
9.71875 3.21065855026 -1.33054316044 
9.828125 3.15904021263 -1.34551715851 
9.9296875 3.10302734375 -1.35942149162 
10.0390625 3.04757261276 -1.37439548969 
10.1484375 2.99016451836 -1.38936936855 
10.2578125 2.93080353737 -1.40434336662 
10.3671875 2.86948943138 -1.41931736469 
10.484375 2.80831480026 -1.43536090851 
10.609375 2.7470703125 -1.45247399807 
10.7265625 2.681640625 -1.46851754189 
10.8515625 2.61600160599 -1.48563063145 
10.9765625 2.54813051224 -1.50274372101 
11.109375 2.47977113724 -1.52092635632 
11.2421875 2.40904021263 -1.53910899162 
11.3828125 2.33754181862 -1.55836129189 
11.5234375 2.26353240013 -1.57761347294 
11.6640625 2.18701171875 -1.59686565399 
11.8125 2.109375 -1.6171875 
11.9609375 2.02908754349 -1.63750934601 
17.453125 2.80496644974 -2.38941597939 
17.453125 2.64913511276 -2.38941597939 
17.453125 2.49330353737 -2.38941597939 
17.453125 2.33747220039 -2.38941597939 
17.453125 2.181640625 -2.38941597939 
17.453125 2.02580904961 -2.38941597939 
17.453125 1.86997771263 -2.38941597939 
17.453125 1.71414625645 -2.38941597939 
17.453125 1.55831468105 -2.38941597939 
17.453125 1.40248322487 -2.38941597939 
17.453125 1.24665176868 -2.38941597939 
17.453125 1.0908203125 -2.38941597939 
17.453125 0.934988856316 -2.38941597939 
18.03125 0.804966509342 -2.46856403351 
18.03125 0.643973231316 -2.46856403351 
18.03125 0.482979923487 -2.46856403351 
18.03125 0.321986615658 -2.46856403351 
18.03125 0.160993307829 -2.46856403351 
18.03125 0.0 -2.46856403351 
18.03125 -0.160993307829 -2.46856403351 
18.03125 -0.321986615658 -2.46856403351 
18.03125 -0.482979923487 -2.46856403351 
18.03125 -0.643973231316 -2.46856403351 
18.03125 -0.804966509342 -2.46856403351 
18.03125 -0.965959846973 -2.46856403351 
18.03125 -1.126953125 -2.46856403351 
18.03125 -1.28794646263 -2.46856403351 
18.03125 -1.44893968105 -2.46856403351 
18.03125 -1.60993301868 -2.46856403351 
18.03125 -1.77092635632 -2.46856403351 
18.03125 -1.93191969395 -2.46856403351 
18.03125 -2.09291291237 -2.46856403351 
18.03125 -2.25390625 -2.46856403351 
18.03125 -2.41489958763 -2.46856403351 
18.03125 -2.57589292526 -2.46856403351 
18.03125 -2.73688626289 -2.46856403351 
18.03125 -2.89787936211 -2.46856403351 
18.03125 -3.05887269974 -2.46856403351 
18.03125 -3.21986603737 -2.46856403351 
18.03125 -3.380859375 -2.46856403351 
18.03125 -3.54185271263 -2.46856403351 
18.03125 -3.70284605026 -2.46856403351 
18.03125 -3.86383938789 -2.46856403351 
11.7421875 -2.62102389336 -1.60756134987 
11.6328125 -2.70047426224 -1.59258747101 
11.5390625 -2.78173828125 -1.57975256443 
11.4453125 -2.861328125 -1.56691777706 
11.34375 -2.93722105026 -1.55301344395 
11.234375 -3.00920748711 -1.53803944588 
11.1328125 -3.08140349388 -1.52413499355 
11.03125 -3.15178561211 -1.51023066044 
11.0 -3.24107146263 -1.50595235825 
10.9375 -3.3203125 -1.49739587307 
13.609375 -4.2529296875 -1.86318826675 
18.03125 -5.79575872421 -2.46856403351 
18.03125 -5.95675230026 -2.46856403351 
18.03125 -6.11774539948 -2.46856403351 
18.03125 -6.27873897552 -2.46856403351 
18.03125 -6.43973207474 -2.46856403351 
12.140625 -4.4443359375 -1.662109375 
13.3515625 -5.0068359375 -1.82789254189 
11.8359375 -4.54415464401 -1.62039625645 
11.734375 -4.60993289948 -1.60649180412 
11.65625 -4.68331480026 -1.59579610825 
12.7421875 -5.2333984375 -1.74446618557 
13.265625 -5.56682491302 -1.81612718105 
13.25 -5.67857122421 -1.81398808956 
13.2421875 -5.79345703125 -1.81291854382 
13.1796875 -5.8837890625 -1.80436193943 
10.0625 -4.58203125 -1.37760412693 
10.0234375 -4.65373897552 -1.37225627899 
10.0 -4.73214292526 -1.36904764175 
10.0 -4.82142877579 -1.36904764175 
10.0 -4.91071414948 -1.36904764175 
10.0 -5.0 -1.36904764175 
10.0 -5.08928585052 -1.36904764175 
10.0 -5.17857122421 -1.36904764175 
9.9921875 -5.26374149323 -1.36797809601 
9.984375 -5.34877252579 -1.36690843105 
9.9765625 -5.43366336823 -1.36583888531 
9.9765625 -5.52273988724 -1.36583888531 
10.03125 -5.642578125 -1.37332594395 
12.1796875 -6.95982122421 -1.66745722294 
11.921875 -6.9189453125 -1.63216149807 
11.71875 -6.90569210052 -1.60435271263 
11.5078125 -6.88413763046 -1.57547438145 
11.453125 -6.95368289948 -1.56798732281 
17.609375 -10.8486328125 -2.41080737114 
17.453125 -10.908203125 -2.38941597939 
17.40625 -11.034318924 -2.38299846649 
17.34375 -11.149553299 -2.37444186211 
17.28125 -11.263671875 -2.36588549614 
17.21875 -11.3766736984 -2.35732889175 
17.15625 -11.4885606766 -2.34877228737 
16.65625 -11.3024549484 -2.28031992912 
15.734375 -10.8173828125 -2.15411090851 
15.1640625 -10.5606861115 -2.07603240013 
15.109375 -10.6575059891 -2.06854534149 
15.0625 -10.758928299 -2.06212806702 
15.0078125 -10.8538646698 -2.05464100838 
14.9609375 -10.953543663 -2.04822349548 
14.90625 -11.0465955734 -2.04073667526 
14.859375 -11.14453125 -2.03431916237 
14.8046875 -11.2357006073 -2.02683210373 
14.7578125 -11.3318920135 -2.02041482925 
14.7109375 -11.4272460938 -2.01399731636 
14.2890625 -11.2271203995 -1.95624065399 
14.609375 -11.6092357635 -2.00009298325 
14.5625 -11.702009201 -1.99367558956 
14.1640625 -11.5083007812 -1.93912756443 
14.46875 -11.8850450516 -1.98084080219 
14.421875 -11.9753065109 -1.97442340851 
14.015625 -11.7631139755 -1.91880583763 
14.3203125 -12.1466932297 -1.96051895618 
14.28125 -12.241071701 -1.95517110825 
13.8828125 -12.0235071182 -1.90062308311 
14.1875 -12.4140625 -1.94233632088 
14.140625 -12.4993028641 -1.93591892719 
13.75 -12.2767858505 -1.88244044781 
14.046875 -12.6672716141 -1.92308402061 
14.0078125 -12.7571153641 -1.91773629189 
13.6328125 -12.5373182297 -1.86639690399 
13.578125 -12.608259201 -1.85890996456 
13.875 -13.0078125 -1.89955353737 
13.53125 -12.8063611984 -1.85249257088 
13.4375 -12.8376111984 -1.83965778351 
13.7421875 -13.2513952255 -1.88137090206 
13.6953125 -13.3284740448 -1.87495350838 
13.3125 -13.0747766495 -1.82254469395 
7.2578125 -7.19301080704 -0.993629097939 
10.9296875 10.9296875 -1.59391272068 
10.859375 10.7624158859 -1.58365881443 
10.8515625 10.657784462 -1.58251953125 
10.9140625 10.6217212677 -1.59163415432 
10.96875 10.577009201 -1.599609375 
10.8671875 10.3820447922 -1.58479821682 
10.765625 10.1888952255 -1.56998693943 
10.6640625 9.99755859375 -1.55517578125 
10.5625 9.80803585052 -1.54036462307 
10.46875 9.62751102448 -1.52669274807 
10.375 9.44866085052 -1.51302087307 
10.28125 9.271484375 -1.49934899807 
10.1875 9.09598255157 -1.48567712307 
10.09375 8.92215442657 -1.47200524807 
10.0078125 8.7568359375 -1.45947265625 
9.921875 8.59305286407 -1.44694006443 
9.8359375 8.43080329895 -1.43440759182 
9.75 8.27008914948 -1.421875 
9.6640625 8.11090946198 -1.40934240818 
9.5859375 7.95975160599 -1.39794921875 
9.5078125 7.80998897552 -1.38655602932 
9.4296875 7.66162109375 -1.37516272068 
8.984375 7.21958684921 -1.31022131443 
8.8828125 7.05866336823 -1.29541015625 
8.8125 6.92410707474 -1.28515625 
8.7421875 6.79080629349 -1.27490234375 
8.671875 6.65876102448 -1.2646484375 
8.6015625 6.52797174454 -1.25439453125 
8.5390625 6.404296875 -1.24527990818 
8.46875 6.27594852448 -1.23502600193 
8.40625 6.15457582474 -1.22591149807 
8.3359375 6.02866888046 -1.21565759182 
8.2734375 5.90959835052 -1.20654296875 
8.2109375 5.79164361954 -1.19742834568 
8.15625 5.68024539948 -1.189453125 
8.1015625 5.56982421875 -1.18147790432 
8.0546875 5.46568059921 -1.17464196682 
8.0234375 5.37283754349 -1.17008459568 
8.0078125 5.29087591171 -1.16780602932 
7.9609375 5.18882513046 -1.16097009182 
7.90625 5.08258914948 -1.15299475193 
7.8515625 4.97732973099 -1.14501953125 
7.6953125 4.8095703125 -1.12223303318 
7.640625 4.70717096329 -1.1142578125 
7.65234375 4.64606571198 -1.11596679688 
7.7109375 4.61279296875 -1.12451171875 
7.7734375 4.58077573776 -1.13362634182 
7.7578125 4.50230169296 -1.13134765625 
7.70703125 4.40401792526 -1.12394201756 
7.65625 4.306640625 -1.11653649807 
7.71484375 4.27071714401 -1.12508141994 
7.78125 4.23800230026 -1.134765625 
7.84765625 4.2041015625 -1.14444983006 
7.9140625 4.16901493073 -1.15413415432 
7.98046875 4.13274288177 -1.16381835938 
8.046875 4.09528446198 -1.17350256443 
8.1171875 4.05859375 -1.18375647068 
8.1875 4.02064752579 -1.19401037693 
8.2578125 3.9814453125 -1.20426428318 
8.3359375 3.94468474388 -1.21565759182 
8.40625 3.90290188789 -1.22591149807 
8.484375 3.86342072487 -1.2373046875 
8.5625 3.82254457474 -1.24869787693 
8.640625 3.7802734375 -1.26009118557 
8.7265625 3.73995542526 -1.27262365818 
8.8046875 3.69482421875 -1.28401696682 
8.890625 3.65150666237 -1.29654943943 
8.9765625 3.60665464401 -1.30908203125 
9.0625 3.56026792526 -1.32161462307 
9.1484375 3.51234650612 -1.33414709568 
9.2421875 3.4658203125 -1.34781897068 
9.3359375 3.41761994362 -1.36149084568 
9.4296875 3.36774563789 -1.37516272068 
9.5234375 3.31619691849 -1.38883459568 
9.625 3.265625 -1.40364587307 
9.71875 3.21065855026 -1.41731774807 
9.828125 3.15904021263 -1.43326818943 
9.9296875 3.10302734375 -1.44807946682 
10.0390625 3.04757261276 -1.46402990818 
10.1484375 2.99016451836 -1.47998046875 
10.2578125 2.93080353737 -1.49593102932 
10.3671875 2.86948943138 -1.51188147068 
10.484375 2.80831480026 -1.52897131443 
10.609375 2.7470703125 -1.54720056057 
10.7265625 2.681640625 -1.56429040432 
10.8515625 2.61600160599 -1.58251953125 
10.9765625 2.54813051224 -1.60074865818 
11.109375 2.47977113724 -1.6201171875 
11.2421875 2.40904021263 -1.63948571682 
11.3828125 2.33754181862 -1.65999352932 
11.5234375 2.26353240013 -1.68050134182 
11.6640625 2.18701171875 -1.70100915432 
11.8125 2.109375 -1.72265625 
11.9609375 2.02908754349 -1.74430334568 
16.390625 2.63420748711 -2.39029955864 
16.390625 2.48786282539 -2.39029955864 
16.390625 2.34151792526 -2.39029955864 
16.390625 2.19517302513 -2.39029955864 
16.390625 2.048828125 -2.39029955864 
16.390625 1.90248322487 -2.39029955864 
16.390625 1.75613844395 -2.39029955864 
16.390625 1.60979354382 -2.39029955864 
16.390625 1.46344864368 -2.39029955864 
16.9375 1.36104905605 -2.47005200386 
16.9375 1.20982146263 -2.47005200386 
16.9375 1.05859375 -2.47005200386 
16.9375 0.907366096973 -2.47005200386 
16.9375 0.756138384342 -2.47005200386 
16.9375 0.604910731316 -2.47005200386 
16.9375 0.453683048487 -2.47005200386 
16.9375 0.302455365658 -2.47005200386 
16.9375 0.151227682829 -2.47005200386 
16.9375 0.0 -2.47005200386 
16.9375 -0.151227682829 -2.47005200386 
16.9375 -0.302455365658 -2.47005200386 
16.9375 -0.453683048487 -2.47005200386 
16.9375 -0.604910731316 -2.47005200386 
16.9375 -0.756138384342 -2.47005200386 
16.9375 -0.907366096973 -2.47005200386 
16.9375 -1.05859375 -2.47005200386 
16.9375 -1.20982146263 -2.47005200386 
16.9375 -1.36104905605 -2.47005200386 
16.9375 -1.51227676868 -2.47005200386 
16.9375 -1.66350448132 -2.47005200386 
16.9375 -1.81473219395 -2.47005200386 
16.9375 -1.96595978737 -2.47005200386 
16.9375 -2.1171875 -2.47005200386 
16.9375 -2.26841521263 -2.47005200386 
16.9375 -2.41964292526 -2.47005200386 
16.9375 -2.57087063789 -2.47005200386 
16.9375 -2.72209811211 -2.47005200386 
16.9375 -2.87332582474 -2.47005200386 
16.9375 -3.02455353737 -2.47005200386 
16.9375 -3.17578125 -2.47005200386 
16.9375 -3.32700896263 -2.47005200386 
16.9375 -3.47823667526 -2.47005200386 
16.9375 -3.62946438789 -2.47005200386 
16.9375 -3.78069186211 -2.47005200386 
11.671875 -2.70954251289 -1.7021484375 
11.5703125 -2.78927183151 -1.68733727932 
11.4765625 -2.869140625 -1.67366540432 
11.3828125 -2.94733548164 -1.65999352932 
11.2734375 -3.01967072487 -1.64404296875 
11.1640625 -3.09005308151 -1.62809240818 
11.0625 -3.16071438789 -1.61328125 
10.984375 -3.23646759987 -1.60188806057 
10.9609375 -3.32742738724 -1.59847009182 
13.609375 -4.2529296875 -1.98470056057 
11.34375 -3.64620542526 -1.654296875 
11.4140625 -3.77071714401 -1.66455078125 
11.484375 -3.896484375 -1.6748046875 
16.9375 -5.89787960052 -2.47005200386 
16.9375 -6.04910707474 -2.47005200386 
13.3984375 -4.90478515625 -1.95393884182 
12.2578125 -4.5966796875 -1.78759765625 
16.9375 -6.50278997421 -2.47005200386 
12.609375 -4.95368289948 -1.8388671875 
11.828125 -4.75237178802 -1.72493493557 
12.6171875 -5.18205928802 -1.84000647068 
16.9375 -7.10770082474 -2.47005200386 
16.9375 -7.25892877579 -2.47005200386 
16.9375 -7.41015625 -2.47005200386 
10.1328125 -4.52357721329 -1.47770178318 
10.0859375 -4.59270381927 -1.47086584568 
10.0234375 -4.65373897552 -1.46175134182 
10.015625 -4.73953676224 -1.46061193943 
10.015625 -4.82896184921 -1.46061193943 
10.0234375 -4.92222356796 -1.46175134182 
10.0234375 -5.01171875 -1.46175134182 
10.0234375 -5.10121393204 -1.46175134182 
10.015625 -5.18666315079 -1.46061193943 
10.0078125 -5.27197265625 -1.45947265625 
10.0078125 -5.361328125 -1.45947265625 
10.0 -5.44642877579 -1.45833337307 
9.9921875 -5.53138971329 -1.45719397068 
10.0546875 -5.65576171875 -1.46630859375 
11.5234375 -6.58482122421 -1.68050134182 
11.5 -6.67410707474 -1.67708337307 
11.484375 -6.767578125 -1.6748046875 
11.46875 -6.86077022552 -1.67252600193 
16.9375 -10.2834825516 -2.47005200386 
16.9375 -10.434709549 -2.47005200386 
16.9375 -10.5859375 -2.47005200386 
16.9375 -10.737165451 -2.47005200386 
16.9375 -10.8883924484 -2.47005200386 
16.9375 -11.0396203995 -2.47005200386 
16.9375 -11.1908483505 -2.47005200386 
