13.3828125 12.9048547745 -2.54910707474 
13.3828125 12.7853651047 -2.54910707474 
13.3828125 12.6658763885 -2.54910707474 
13.3828125 12.5463867188 -2.54910707474 
13.3828125 12.426897049 -2.54910707474 
13.3828125 12.3074083328 -2.54910707474 
13.3828125 12.187918663 -2.54910707474 
13.3828125 12.0684289932 -2.54910707474 
13.3828125 11.9489393234 -2.54910707474 
13.3828125 11.8294506073 -2.54910707474 
13.3828125 11.7099609375 -2.54910707474 
13.390625 11.597237587 -2.55059528351 
13.390625 11.477678299 -2.55059528351 
13.390625 11.3581190109 -2.55059528351 
13.390625 11.2385606766 -2.55059528351 
13.390625 11.1190013885 -2.55059528351 
13.390625 10.9994421005 -2.55059528351 
13.390625 10.8798828125 -2.55059528351 
13.390625 10.7603235245 -2.55059528351 
13.390625 10.6407642365 -2.55059528351 
13.390625 10.5212049484 -2.55059528351 
13.390625 10.4016466141 -2.55059528351 
13.390625 10.282087326 -2.55059528351 
13.390625 10.162528038 -2.55059528351 
13.390625 10.04296875 -2.55059528351 
12.3984375 9.1881275177 -2.36160707474 
11.328125 8.29380607605 -2.15773820877 
11.1015625 8.02880859375 -2.11458325386 
11.140625 7.95758914948 -2.12202382088 
11.0703125 7.80852413177 -2.10863089561 
10.2734375 7.15471553802 -1.95684528351 
7.3515625 5.05419921875 -1.40029764175 
7.1640625 4.861328125 -1.36458337307 
6.73828125 4.51224184036 -1.28348219395 
6.54296875 4.32303285599 -1.24627971649 
6.484375 4.22642278671 -1.23511910439 
5.80859375 3.73409605026 -1.10639882088 
5.828125 3.69461488724 -1.11011910439 
5.859375 3.662109375 -1.11607146263 
5.88671875 3.62663912773 -1.12127971649 
5.92578125 3.59779572487 -1.12872028351 
5.734375 3.43038511276 -1.09226191044 
5.7109375 3.36537384987 -1.08779764175 
5.73828125 3.33025240898 -1.09300589561 
5.76953125 3.296875 -1.09895837307 
5.796875 3.2607421875 -1.10416662693 
5.828125 3.22628355026 -1.11011910439 
5.85546875 3.18913912773 -1.11532735825 
5.88671875 3.15359926224 -1.12127971649 
5.91796875 3.11750149727 -1.12723219395 
5.9453125 3.07882261276 -1.13244044781 
5.9765625 3.04164338112 -1.13839280605 
6.0078125 3.00390625 -1.14434528351 
6.0390625 2.96561098099 -1.15029764175 
6.0703125 2.9267578125 -1.15625 
6.1015625 2.88734650612 -1.16220235825 
6.13671875 2.84919095039 -1.16889882088 
6.16796875 2.80862855911 -1.17485117912 
6.203125 2.76925230026 -1.18154764175 
6.234375 2.7275390625 -1.1875 
6.26953125 2.68694186211 -1.19419646263 
6.3046875 2.64571714401 -1.20089280605 
6.3359375 2.60226011276 -1.20684528351 
6.37109375 2.55981445312 -1.21354162693 
6.40625 2.51674103737 -1.22023808956 
6.44140625 2.47303986549 -1.22693455219 
6.48046875 2.43017578125 -1.234375 
6.515625 2.38518404961 -1.24107146263 
6.5546875 2.34095978737 -1.24851191044 
6.58984375 2.29467773438 -1.25520837307 
6.62890625 2.24909329414 -1.26264882088 
6.66796875 2.20281100273 -1.27008926868 
6.703125 2.15457582474 -1.27678573132 
6.7421875 2.10693359375 -1.28422617912 
6.78515625 2.05977964401 -1.29241073132 
6.82421875 2.01070737839 -1.29985117912 
6.86328125 1.9609375 -1.30729162693 
6.90625 1.91155135632 -1.31547617912 
6.9453125 1.8603515625 -1.32291662693 
6.98828125 1.80946564674 -1.33110117912 
7.03125 1.7578125 -1.33928573132 
7.07421875 1.70539200306 -1.34747028351 
7.1171875 1.65220427513 -1.35565471649 
7.16015625 1.59824919701 -1.36383926868 
7.20703125 1.54436385632 -1.37276780605 
7.25 1.48883926868 -1.38095235825 
7.296875 1.43331468105 -1.38988089561 
7.34375 1.376953125 -1.39880955219 
7.390625 1.31975448132 -1.40773808956 
7.4375 1.26171875 -1.41666662693 
7.484375 1.20284593105 -1.42559528351 
7.53515625 1.14372909069 -1.43526780605 
7.58203125 1.08314728737 -1.44419646263 
7.6328125 1.0222517252 -1.45386910439 
7.68359375 0.96044921875 -1.46354162693 
7.734375 0.897739946842 -1.47321426868 
7.7890625 0.834542393684 -1.48363089561 
7.83984375 0.769984662533 -1.49330353737 
7.89453125 0.704868853092 -1.50372028351 
7.94921875 0.638776481152 -1.51413691044 
8.0 0.571428596973 -1.52380955219 
8.0546875 0.50341796875 -1.53422617912 
8.1171875 0.434849321842 -1.54613089561 
8.171875 0.364815860987 -1.55654764175 
8.2265625 0.293805807829 -1.56696426868 
8.2890625 0.222028464079 -1.57886910439 
8.34375 0.148995533586 -1.58928573132 
8.40625 0.0750558003783 -1.60119044781 
8.46875 0.0 -1.61309528351 
8.53125 -0.076171875 -1.625 
8.59375 -0.153459817171 -1.63690471649 
8.65625 -0.231863841414 -1.64880955219 
8.7265625 -0.311662942171 -1.66220235825 
8.7890625 -0.392368853092 -1.67410719395 
13.4375 -0.719866096973 -2.55952382088 
13.4375 -0.83984375 -2.55952382088 
13.4375 -0.959821403027 -2.55952382088 
13.4375 -1.07979905605 -2.55952382088 
13.0234375 -1.16280686855 -2.48065471649 
13.0234375 -1.2790876627 -2.48065471649 
13.0234375 -1.39536833763 -2.48065471649 
13.0234375 -1.51164901257 -2.48065471649 
13.0234375 -1.6279296875 -2.48065471649 
13.0234375 -1.74421036243 -2.48065471649 
13.0234375 -1.86049103737 -2.48065471649 
13.0234375 -1.9767717123 -2.48065471649 
13.0234375 -2.09305238724 -2.48065471649 
13.0234375 -2.20933318138 -2.48065471649 
13.0234375 -2.32561373711 -2.48065471649 
13.0234375 -2.44189453125 -2.48065471649 
13.0234375 -2.55817532539 -2.48065471649 
13.0234375 -2.67445588112 -2.48065471649 
13.03125 -2.79241061211 -2.48214292526 
13.03125 -2.90876126289 -2.48214292526 
13.03125 -3.02511167526 -2.48214292526 
13.03125 -3.14146208763 -2.48214292526 
13.4453125 -3.361328125 -2.56101179123 
13.4453125 -3.48137545586 -2.56101179123 
13.453125 -3.603515625 -2.5625 
13.453125 -3.7236328125 -2.5625 
13.453125 -3.84375 -2.5625 
13.453125 -3.9638671875 -2.5625 
13.453125 -4.083984375 -2.5625 
13.453125 -4.2041015625 -2.5625 
13.453125 -4.32421875 -2.5625 
13.453125 -4.4443359375 -2.5625 
13.453125 -4.564453125 -2.5625 
13.453125 -4.6845703125 -2.5625 
13.453125 -4.8046875 -2.5625 
13.453125 -4.9248046875 -2.5625 
13.453125 -5.044921875 -2.5625 
13.453125 -5.1650390625 -2.5625 
13.453125 -5.28515625 -2.5625 
13.453125 -5.4052734375 -2.5625 
13.4609375 -5.52859926224 -2.56398820877 
13.4609375 -5.64878606796 -2.56398820877 
13.4609375 -5.76897335052 -2.56398820877 
13.4609375 -5.88916015625 -2.56398820877 
13.4609375 -6.00934696198 -2.56398820877 
13.4609375 -6.12953424454 -2.56398820877 
13.4609375 -6.24972105026 -2.56398820877 
13.4609375 -6.36990785599 -2.56398820877 
13.4609375 -6.49009466171 -2.56398820877 
13.4609375 -6.61028194427 -2.56398820877 
13.4609375 -6.73046875 -2.56398820877 
13.4609375 -6.85065555573 -2.56398820877 
13.4609375 -6.97084283829 -2.56398820877 
13.4609375 -7.09102964401 -2.56398820877 
13.4609375 -7.21121644974 -2.56398820877 
13.46875 -7.33565855026 -2.56547617912 
13.46875 -7.45591497421 -2.56547617912 
13.46875 -7.576171875 -2.56547617912 
13.46875 -7.69642877579 -2.56547617912 
13.46875 -7.81668519974 -2.56547617912 
13.46875 -7.93694210052 -2.56547617912 
13.46875 -8.05719852448 -2.56547617912 
13.46875 -8.17745494843 -2.56547617912 
13.46875 -8.29771232605 -2.56547617912 
13.46875 -8.41796875 -2.56547617912 
13.46875 -8.53822517395 -2.56547617912 
13.46875 -8.65848255157 -2.56547617912 
13.46875 -8.77873897552 -2.56547617912 
13.46875 -8.89899539948 -2.56547617912 
6.78125 -4.541015625 -1.29166662693 
6.65234375 -4.51409053802 -1.26711308956 
6.5859375 -4.52783203125 -1.25446426868 
6.5234375 -4.54310846329 -1.24255955219 
6.46484375 -4.56002378464 -1.23139882088 
6.40625 -4.57589292526 -1.22023808956 
6.34765625 -4.59071588516 -1.20907735825 
6.28515625 -4.60163211823 -1.19717264175 
6.2265625 -4.61432743073 -1.18601191044 
6.16796875 -4.6259765625 -1.17485117912 
6.11328125 -4.63954401016 -1.16443455219 
6.05859375 -4.65213441849 -1.15401780605 
6.0078125 -4.66678285599 -1.14434528351 
5.95703125 -4.68052434921 -1.13467264175 
5.94921875 -4.72750425339 -1.13318455219 
5.90234375 -4.74295473099 -1.12425589561 
5.8671875 -4.76708984375 -1.11755955219 
13.4765625 -11.0700330734 -2.56696438789 
13.484375 -11.196846962 -2.56845235825 
13.484375 -11.317243576 -2.56845235825 
13.484375 -11.4376392365 -2.56845235825 
13.484375 -11.5580358505 -2.56845235825 
13.484375 -11.6784315109 -2.56845235825 
13.484375 -11.798828125 -2.56845235825 
13.484375 -11.9192247391 -2.56845235825 
13.484375 -12.0396203995 -2.56845235825 
13.484375 -12.1600170135 -2.56845235825 
13.484375 -12.280412674 -2.56845235825 
13.484375 -12.400809288 -2.56845235825 
13.484375 -12.5212049484 -2.56845235825 
13.484375 -12.6416015625 -2.56845235825 
13.484375 -12.7619981766 -2.56845235825 
8.1875 -7.82198667526 -1.55952382088 
8.15625 -7.86495542526 -1.55357146263 
8.1328125 -7.91496944427 -1.54910719395 
8.15625 -8.01060295105 -1.55357146263 
8.0703125 -7.99825620651 -1.53720235825 
12.78125 12.78125 -2.54864215851 
12.78125 12.667131424 -2.54864215851 
12.78125 12.5530138016 -2.54864215851 
12.7890625 12.4464979172 -2.5501999855 
12.7890625 12.3323106766 -2.5501999855 
12.7890625 12.2181224823 -2.5501999855 
12.7890625 12.103934288 -2.5501999855 
12.7890625 11.9897460938 -2.5501999855 
12.7890625 11.8755578995 -2.5501999855 
12.7890625 11.7613697052 -2.5501999855 
12.7890625 11.6471815109 -2.5501999855 
12.7890625 11.5329942703 -2.5501999855 
12.7890625 11.418806076 -2.5501999855 
12.7890625 11.3046178818 -2.5501999855 
12.7890625 11.1904296875 -2.5501999855 
12.7890625 11.0762414932 -2.5501999855 
12.7890625 10.962053299 -2.5501999855 
12.7890625 10.8478651047 -2.5501999855 
12.7890625 10.7336778641 -2.5501999855 
12.7890625 10.6194896698 -2.5501999855 
12.796875 10.51171875 -2.5517578125 
12.796875 10.3974609375 -2.5517578125 
12.796875 10.283203125 -2.5517578125 
12.796875 10.1689453125 -2.5517578125 
12.796875 10.0546875 -2.5517578125 
12.796875 9.9404296875 -2.5517578125 
12.796875 9.826171875 -2.5517578125 
12.796875 9.7119140625 -2.5517578125 
12.796875 9.59765625 -2.5517578125 
12.0390625 8.92180538177 -2.40064644814 
11.3515625 8.31096553802 -2.26355552673 
11.1015625 8.02880859375 -2.21370434761 
11.140625 7.95758914948 -2.22149372101 
11.0703125 7.80852413177 -2.20747303963 
10.2734375 7.15471553802 -2.04857230186 
7.3359375 5.04345703125 -1.46282088757 
6.96875 4.72879457474 -1.38960194588 
6.73828125 4.51224184036 -1.34364533424 
6.36328125 4.20431089401 -1.26886856556 
6.25 4.07366085052 -1.24627971649 
5.80859375 3.73409605026 -1.15826129913 
5.828125 3.69461488724 -1.16215586662 
5.859375 3.662109375 -1.16838729382 
5.88671875 3.62663912773 -1.17383980751 
5.92578125 3.59779572487 -1.18162894249 
5.734375 3.43038511276 -1.14346170425 
5.7109375 3.36537384987 -1.13878810406 
5.73828125 3.33025240898 -1.14424061775 
5.76953125 3.296875 -1.15047204494 
5.796875 3.2607421875 -1.15592443943 
5.828125 3.22628355026 -1.16215586662 
5.85546875 3.18913912773 -1.16760838032 
5.88671875 3.15359926224 -1.17383980751 
5.91796875 3.11750149727 -1.18007111549 
5.9453125 3.07882261276 -1.18552362919 
5.9765625 3.04164338112 -1.19175505638 
6.0078125 3.00390625 -1.19798636436 
6.0390625 2.96561098099 -1.20421779156 
6.0703125 2.9267578125 -1.21044921875 
6.1015625 2.88734650612 -1.21668064594 
6.13671875 2.84919095039 -1.22369098663 
6.16796875 2.80862855911 -1.22992229462 
6.203125 2.76925230026 -1.23693263531 
6.234375 2.7275390625 -1.2431640625 
6.26953125 2.68694186211 -1.25017440319 
6.3046875 2.64571714401 -1.25718474388 
6.3359375 2.60226011276 -1.26341605186 
6.37109375 2.55981445312 -1.27042639256 
6.40625 2.51674103737 -1.27743673325 
6.44140625 2.47303986549 -1.28444707394 
6.48046875 2.43017578125 -1.29223632812 
6.515625 2.38518404961 -1.29924666882 
6.5546875 2.34095978737 -1.307035923 
6.58984375 2.29467773438 -1.31404626369 
6.62890625 2.24909329414 -1.32183551788 
6.66796875 2.20281100273 -1.32962477207 
6.703125 2.15457582474 -1.33663499355 
6.7421875 2.10693359375 -1.34442424774 
6.78515625 2.05977964401 -1.35299241543 
6.82421875 2.01070737839 -1.36078166962 
6.86328125 1.9609375 -1.36857092381 
6.90625 1.91155135632 -1.37713909149 
6.9453125 1.8603515625 -1.38492834568 
6.98828125 1.80946564674 -1.39349651337 
7.03125 1.7578125 -1.40206468105 
7.07421875 1.70539200306 -1.41063284874 
7.1171875 1.65220427513 -1.41920113564 
7.16015625 1.59824919701 -1.42776930332 
7.20703125 1.54436385632 -1.43711638451 
7.25 1.48883926868 -1.44568455219 
7.296875 1.43331468105 -1.45503163338 
7.34375 1.376953125 -1.46437871456 
7.390625 1.31975448132 -1.47372579575 
7.4375 1.26171875 -1.48307287693 
7.484375 1.20284593105 -1.49241995811 
7.53515625 1.14372909069 -1.50254607201 
7.58203125 1.08314728737 -1.51189315319 
7.6328125 1.0222517252 -1.52201914787 
7.68359375 0.96044921875 -1.53214514256 
7.734375 0.897739946842 -1.54227125645 
7.7890625 0.834542393684 -1.55317616463 
7.83984375 0.769984662533 -1.56330215931 
7.89453125 0.704868853092 -1.57420706749 
7.94921875 0.638776481152 -1.58511209488 
8.0 0.571428596973 -1.59523808956 
8.0546875 0.50341796875 -1.60614299774 
8.109375 0.434430807829 -1.61704802513 
8.171875 0.364815860987 -1.62951076031 
8.2265625 0.293805807829 -1.6404157877 
8.2890625 0.222028464079 -1.65287852287 
8.34375 0.148995533586 -1.66378343105 
8.40625 0.0750558003783 -1.67624628544 
8.46875 0.0 -1.68870902061 
8.53125 -0.076171875 -1.701171875 
8.59375 -0.153459817171 -1.71363472939 
8.65625 -0.231863841414 -1.72609746456 
8.7265625 -0.311662942171 -1.74011814594 
8.7890625 -0.392368853092 -1.75258088112 
12.8359375 -0.687639534473 -2.55954694748 
12.8359375 -0.80224609375 -2.55954694748 
12.8359375 -0.916852653027 -2.55954694748 
12.8359375 -1.0314592123 -2.55954694748 
12.8359375 -1.14606583118 -2.55954694748 
12.8359375 -1.26067245007 -2.55954694748 
12.84375 -1.37611603737 -2.56110501289 
12.84375 -1.49079239368 -2.56110501289 
12.4375 -1.5546875 -2.48009681702 
12.4375 -1.66573655605 -2.48009681702 
12.4453125 -1.77790176868 -2.48165464401 
12.4453125 -1.88902068138 -2.48165464401 
12.4453125 -2.00013947487 -2.48165464401 
12.4453125 -2.11125826836 -2.48165464401 
12.4453125 -2.22237730026 -2.48165464401 
12.4453125 -2.33349609375 -2.48165464401 
12.4453125 -2.44461488724 -2.48165464401 
12.84375 -2.63755583763 -2.56110501289 
12.84375 -2.75223207474 -2.56110501289 
12.84375 -2.86690855026 -2.56110501289 
12.84375 -2.98158478737 -2.56110501289 
12.84375 -3.09626126289 -2.56110501289 
12.84375 -3.2109375 -2.56110501289 
12.8515625 -3.32763671875 -2.56266283989 
12.8515625 -3.4423828125 -2.56266283989 
12.8515625 -3.55712890625 -2.56266283989 
12.8515625 -3.671875 -2.56266283989 
12.8515625 -3.78662109375 -2.56266283989 
12.8515625 -3.9013671875 -2.56266283989 
12.8515625 -4.01611328125 -2.56266283989 
12.8515625 -4.130859375 -2.56266283989 
12.8515625 -4.24560546875 -2.56266283989 
12.8515625 -4.3603515625 -2.56266283989 
12.8515625 -4.47509765625 -2.56266283989 
12.8515625 -4.58984375 -2.56266283989 
12.8515625 -4.70458984375 -2.56266283989 
12.8515625 -4.8193359375 -2.56266283989 
12.8515625 -4.93408203125 -2.56266283989 
12.8515625 -5.048828125 -2.56266283989 
12.8515625 -5.16357421875 -2.56266283989 
12.8515625 -5.2783203125 -2.56266283989 
12.859375 -5.39634466171 -2.56422066689 
12.859375 -5.51116085052 -2.56422066689 
12.859375 -5.6259765625 -2.56422066689 
12.859375 -5.74079227448 -2.56422066689 
12.859375 -5.85560846329 -2.56422066689 
12.859375 -5.97042417526 -2.56422066689 
12.859375 -6.08523988724 -2.56422066689 
12.859375 -6.20005559921 -2.56422066689 
12.859375 -6.31487178802 -2.56422066689 
12.859375 -6.4296875 -2.56422066689 
12.859375 -6.54450321198 -2.56422066689 
12.859375 -6.65931940079 -2.56422066689 
12.859375 -6.77413511276 -2.56422066689 
12.859375 -6.88895082474 -2.56422066689 
12.859375 -7.00376653671 -2.56422066689 
12.859375 -7.11858272552 -2.56422066689 
12.859375 -7.2333984375 -2.56422066689 
12.8671875 -7.35267877579 -2.56577849388 
12.8671875 -7.46756410599 -2.56577849388 
12.8671875 -7.58244991302 -2.56577849388 
12.8671875 -7.69733524323 -2.56577849388 
12.8671875 -7.81222105026 -2.56577849388 
12.8671875 -7.92710638046 -2.56577849388 
12.8671875 -8.0419921875 -2.56577849388 
12.8671875 -8.1568775177 -2.56577849388 
12.8671875 -8.27176380157 -2.56577849388 
12.8671875 -8.38664913177 -2.56577849388 
12.8671875 -8.50153446198 -2.56577849388 
6.796875 -4.55147886276 -1.35532927513 
6.66796875 -4.52469301224 -1.32962477207 
6.6015625 -4.53857421875 -1.31638300419 
6.5390625 -4.55398988724 -1.3039201498 
6.4765625 -4.56828975677 -1.29145741463 
6.421875 -4.58705377579 -1.28055250645 
6.36328125 -4.60201597214 -1.26886856556 
6.30859375 -4.61879205704 -1.25796365738 
6.25 -4.63169622421 -1.24627971649 
6.19140625 -4.6435546875 -1.23459589481 
6.12890625 -4.65140199661 -1.22213304043 
6.0703125 -4.6611328125 -1.21044921875 
6.015625 -4.6728515625 -1.19954431057 
5.96484375 -4.68666315079 -1.18941819668 
5.9296875 -4.71198368073 -1.1824079752 
5.9140625 -4.75237178802 -1.179292202 
5.8671875 -4.76708984375 -1.16994512081 
5.86328125 -4.81626653671 -1.16916620731 
12.875 -10.6908483505 -2.56733632088 
12.875 -10.805803299 -2.56733632088 
12.875 -10.920759201 -2.56733632088 
12.875 -11.0357141495 -2.56733632088 
12.875 -11.1506700516 -2.56733632088 
12.8828125 -11.2724609375 -2.56889414787 
12.8828125 -11.3874864578 -2.56889414787 
12.8828125 -11.5025110245 -2.56889414787 
12.8828125 -11.6175365448 -2.56889414787 
12.8828125 -11.7325611115 -2.56889414787 
12.8828125 -11.8475866318 -2.56889414787 
12.8828125 -11.9626111984 -2.56889414787 
12.8828125 -12.0776367188 -2.56889414787 
12.8828125 -12.1926622391 -2.56889414787 
8.1328125 -7.76974058151 -1.62172150612 
8.0859375 -7.79715394974 -1.61237442493 
8.0703125 -7.85414361954 -1.60925877094 
8.140625 -7.99525690079 -1.62327933311 
8.0546875 -7.98277044296 -1.60614299774 
12.2421875 12.2421875 -2.55045580864 
12.2421875 12.1328821182 -2.55045580864 
12.2421875 12.0235767365 -2.55045580864 
12.2421875 11.9142713547 -2.55045580864 
12.2421875 11.8049669266 -2.55045580864 
12.2421875 11.6956615448 -2.55045580864 
12.2421875 11.586356163 -2.55045580864 
12.2421875 11.4770507812 -2.55045580864 
12.2421875 11.3677453995 -2.55045580864 
12.2421875 11.2584400177 -2.55045580864 
12.2421875 11.1491346359 -2.55045580864 
12.2421875 11.0398302078 -2.55045580864 
12.2421875 10.930524826 -2.55045580864 
12.2421875 10.8212194443 -2.55045580864 
12.2421875 10.7119140625 -2.55045580864 
12.2421875 10.6026086807 -2.55045580864 
12.25 10.5 -2.55208325386 
12.25 10.390625 -2.55208325386 
12.25 10.28125 -2.55208325386 
12.25 10.171875 -2.55208325386 
12.25 10.0625 -2.55208325386 
12.25 9.953125 -2.55208325386 
12.25 9.84375 -2.55208325386 
12.25 9.734375 -2.55208325386 
12.25 9.625 -2.55208325386 
12.25 9.515625 -2.55208325386 
12.25 9.40625 -2.55208325386 
12.25 9.296875 -2.55208325386 
12.25 9.1875 -2.55208325386 
11.9765625 8.87548828125 -2.4951171875 
11.2734375 8.25376701355 -2.3486328125 
11.1015625 8.02880859375 -2.31282544136 
11.140625 7.95758914948 -2.32096362114 
11.0703125 7.80852413177 -2.30631518364 
10.2734375 7.15471553802 -2.14029955864 
7.3359375 5.04345703125 -1.5283203125 
6.87109375 4.66252803802 -1.43147790432 
6.6484375 4.45207881927 -1.38509118557 
6.36328125 4.20431089401 -1.32568359375 
6.0234375 3.92599058151 -1.2548828125 
5.80859375 3.73409605026 -1.21012365818 
5.828125 3.69461488724 -1.21419274807 
5.859375 3.662109375 -1.220703125 
5.88671875 3.62663912773 -1.22639977932 
5.92578125 3.59779572487 -1.23453772068 
5.734375 3.43038511276 -1.19466149807 
5.7109375 3.36537384987 -1.18977868557 
5.73828125 3.33025240898 -1.19547522068 
5.76953125 3.296875 -1.20198571682 
5.796875 3.2607421875 -1.20768225193 
5.828125 3.22628355026 -1.21419274807 
5.85546875 3.18913912773 -1.21988928318 
5.88671875 3.15359926224 -1.22639977932 
5.91796875 3.11750149727 -1.23291015625 
5.9453125 3.07882261276 -1.23860681057 
5.9765625 3.04164338112 -1.2451171875 
6.0078125 3.00390625 -1.25162756443 
6.0390625 2.96561098099 -1.25813806057 
6.0703125 2.9267578125 -1.2646484375 
6.1015625 2.88734650612 -1.27115881443 
6.13671875 2.84919095039 -1.27848303318 
6.16796875 2.80862855911 -1.28499352932 
6.203125 2.76925230026 -1.29231774807 
6.234375 2.7275390625 -1.298828125 
6.26953125 2.68694186211 -1.30615234375 
6.3046875 2.64571714401 -1.3134765625 
6.3359375 2.60226011276 -1.31998693943 
6.37109375 2.55981445312 -1.32731115818 
6.40625 2.51674103737 -1.33463537693 
6.44140625 2.47303986549 -1.34195959568 
6.48046875 2.43017578125 -1.35009765625 
6.515625 2.38518404961 -1.357421875 
6.5546875 2.34095978737 -1.36555993557 
6.58984375 2.29467773438 -1.37288415432 
6.62890625 2.24909329414 -1.38102209568 
6.66796875 2.20281100273 -1.38916015625 
6.703125 2.15457582474 -1.396484375 
6.7421875 2.10693359375 -1.40462243557 
6.78515625 2.05977964401 -1.41357421875 
6.82421875 2.01070737839 -1.42171227932 
6.86328125 1.9609375 -1.42985022068 
6.90625 1.91155135632 -1.43880212307 
6.9453125 1.8603515625 -1.44694006443 
6.98828125 1.80946564674 -1.45589196682 
7.03125 1.7578125 -1.46484375 
7.07421875 1.70539200306 -1.47379553318 
7.1171875 1.65220427513 -1.48274743557 
7.16015625 1.59824919701 -1.49169921875 
7.20703125 1.54436385632 -1.50146484375 
7.25 1.48883926868 -1.51041662693 
7.296875 1.43331468105 -1.52018225193 
7.34375 1.376953125 -1.52994787693 
7.390625 1.31975448132 -1.53971350193 
7.4375 1.26171875 -1.54947912693 
7.484375 1.20284593105 -1.55924475193 
7.53515625 1.14372909069 -1.56982421875 
7.58203125 1.08314728737 -1.57958984375 
7.6328125 1.0222517252 -1.59016931057 
7.68359375 0.96044921875 -1.60074865818 
7.734375 0.897739946842 -1.611328125 
7.7890625 0.834542393684 -1.62272131443 
7.83984375 0.769984662533 -1.63330078125 
7.89453125 0.704868853092 -1.64469397068 
7.94921875 0.638776481152 -1.65608727932 
8.0 0.571428596973 -1.66666662693 
8.0546875 0.50341796875 -1.67805993557 
8.109375 0.434430807829 -1.689453125 
8.171875 0.364815860987 -1.70247399807 
8.2265625 0.293805807829 -1.7138671875 
8.2890625 0.222028464079 -1.72688806057 
8.34375 0.148995533586 -1.73828125 
8.40625 0.0750558003783 -1.75130212307 
8.46875 0.0 -1.76432287693 
8.53125 -0.076171875 -1.77734375 
8.59375 -0.153459817171 -1.79036462307 
8.65625 -0.231863841414 -1.80338537693 
8.7265625 -0.311662942171 -1.81803381443 
8.7890625 -0.392368853092 -1.8310546875 
12.2890625 -0.658342659473 -2.56022143364 
12.2890625 -0.76806640625 -2.56022143364 
12.2890625 -0.877790153027 -2.56022143364 
12.2890625 -0.987513959408 -2.56022143364 
12.2890625 -1.09723770618 -2.56022143364 
12.2890625 -1.20696151257 -2.56022143364 
12.2890625 -1.31668531895 -2.56022143364 
12.2890625 -1.42640900612 -2.56022143364 
12.2890625 -1.5361328125 -2.56022143364 
12.2890625 -1.64585661888 -2.56022143364 
12.2890625 -1.75558030605 -2.56022143364 
12.2890625 -1.86530411243 -2.56022143364 
12.296875 -1.97628343105 -2.56184887886 
12.296875 -2.08607697487 -2.56184887886 
12.296875 -2.19587063789 -2.56184887886 
12.296875 -2.3056640625 -2.56184887886 
12.296875 -2.41545748711 -2.56184887886 
12.296875 -2.52525115013 -2.56184887886 
12.296875 -2.63504457474 -2.56184887886 
12.296875 -2.74483823776 -2.56184887886 
12.296875 -2.85463166237 -2.56184887886 
12.296875 -2.96442532539 -2.56184887886 
12.296875 -3.07421875 -2.56184887886 
12.296875 -3.18401217461 -2.56184887886 
12.296875 -3.29380583763 -2.56184887886 
12.296875 -3.40359926224 -2.56184887886 
12.296875 -3.51339292526 -2.56184887886 
12.296875 -3.62318634987 -2.56184887886 
12.296875 -3.73298001289 -2.56184887886 
12.296875 -3.8427734375 -2.56184887886 
12.3046875 -3.955078125 -2.5634765625 
12.3046875 -4.06494140625 -2.5634765625 
12.3046875 -4.1748046875 -2.5634765625 
12.3046875 -4.28466796875 -2.5634765625 
12.3046875 -4.39453125 -2.5634765625 
12.3046875 -4.50439453125 -2.5634765625 
12.3046875 -4.6142578125 -2.5634765625 
12.3046875 -4.72412109375 -2.5634765625 
12.3046875 -4.833984375 -2.5634765625 
12.3046875 -4.94384765625 -2.5634765625 
12.3046875 -5.0537109375 -2.5634765625 
12.3046875 -5.16357421875 -2.5634765625 
12.3046875 -5.2734375 -2.5634765625 
12.3046875 -5.38330078125 -2.5634765625 
12.3046875 -5.4931640625 -2.5634765625 
12.3046875 -5.60302734375 -2.5634765625 
12.3046875 -5.712890625 -2.5634765625 
12.3046875 -5.82275390625 -2.5634765625 
12.3046875 -5.9326171875 -2.5634765625 
12.3125 -6.04631710052 -2.56510424614 
12.3125 -6.15625 -2.56510424614 
12.3125 -6.26618289948 -2.56510424614 
12.3125 -6.37611627579 -2.56510424614 
12.3125 -6.48604917526 -2.56510424614 
12.3125 -6.59598207474 -2.56510424614 
12.3125 -6.70591497421 -2.56510424614 
12.3125 -6.81584835052 -2.56510424614 
12.3125 -6.92578125 -2.56510424614 
12.3125 -7.03571414948 -2.56510424614 
12.3125 -7.14564752579 -2.56510424614 
12.3125 -7.25558042526 -2.56510424614 
12.3125 -7.36551332474 -2.56510424614 
12.3125 -7.47544622421 -2.56510424614 
12.3125 -7.58537960052 -2.56510424614 
12.3125 -7.6953125 -2.56510424614 
12.3125 -7.80524539948 -2.56510424614 
12.3125 -7.91517877579 -2.56510424614 
12.3125 -8.02511119843 -2.56510424614 
12.3203125 -8.14020633698 -2.56673169136 
6.8125 -4.56194210052 -1.41927087307 
6.6796875 -4.53264522552 -1.3916015625 
6.61328125 -4.54663085938 -1.37776696682 
6.55078125 -4.56215143204 -1.36474609375 
6.4921875 -4.57931089401 -1.3525390625 
6.43359375 -4.59542417526 -1.34033203125 
6.37890625 -4.61331605911 -1.32893884182 
6.32421875 -4.63023138046 -1.31754553318 
6.265625 -4.64327573776 -1.30533850193 
6.203125 -4.65234375 -1.29231774807 
6.14453125 -4.6632604599 -1.28011071682 
6.0859375 -4.67313051224 -1.26790368557 
6.02734375 -4.68195438385 -1.25569665432 
5.9765625 -4.69587039948 -1.2451171875 
5.92578125 -4.70887994766 -1.23453772068 
5.921875 -4.75864934921 -1.23372399807 
5.87890625 -4.77661132812 -1.22477209568 
5.83984375 -4.79701471329 -1.21663415432 
12.328125 -10.236746788 -2.568359375 
12.328125 -10.346818924 -2.568359375 
12.328125 -10.4568920135 -2.568359375 
12.328125 -10.5669641495 -2.568359375 
12.328125 -10.6770372391 -2.568359375 
12.328125 -10.787109375 -2.568359375 
12.328125 -10.8971815109 -2.568359375 
12.328125 -11.0072546005 -2.568359375 
12.328125 -11.1173267365 -2.568359375 
12.328125 -11.227399826 -2.568359375 
12.328125 -11.337471962 -2.568359375 
7.03125 -6.52901792526 -1.46484375 
7.03125 -6.591796875 -1.46484375 
7.03125 -6.65457582474 -1.46484375 
7.03125 -6.71735477448 -1.46484375 
7.03125 -6.78013372421 -1.46484375 
7.03125 -6.84291315079 -1.46484375 
7.03125 -6.90569210052 -1.46484375 
7.03125 -6.96847105026 -1.46484375 
11.7421875 11.7421875 -2.55113005638 
11.7421875 11.6373462677 -2.55113005638 
11.7421875 11.5325059891 -2.55113005638 
11.7421875 11.4276647568 -2.55113005638 
11.7421875 11.3228235245 -2.55113005638 
11.7421875 11.2179822922 -2.55113005638 
11.7421875 11.1131420135 -2.55113005638 
11.7421875 11.0083007812 -2.55113005638 
11.7421875 10.903459549 -2.55113005638 
11.7421875 10.7986192703 -2.55113005638 
11.7421875 10.693778038 -2.55113005638 
11.7421875 10.5889368057 -2.55113005638 
11.7421875 10.4840955734 -2.55113005638 
11.7421875 10.3792552948 -2.55113005638 
11.7421875 10.2744140625 -2.55113005638 
11.7421875 10.1695728302 -2.55113005638 
11.7421875 10.0647325516 -2.55113005638 
11.7421875 9.95989131927 -2.55113005638 
11.75 9.86160755157 -2.55282735825 
11.75 9.75669670105 -2.55282735825 
11.75 9.65178585052 -2.55282735825 
11.75 9.546875 -2.55282735825 
11.75 9.44196414948 -2.55282735825 
11.75 9.33705329895 -2.55282735825 
11.75 9.23214244843 -2.55282735825 
11.75 9.12723255157 -2.55282735825 
11.75 9.02232170105 -2.55282735825 
11.75 8.91741085052 -2.55282735825 
11.75 8.8125 -2.55282735825 
11.75 8.70758914948 -2.55282735825 
11.2109375 8.2080078125 -2.43570971489 
11.1015625 8.02880859375 -2.41194653511 
11.140625 7.95758914948 -2.42043352127 
11.3671875 8.0179271698 -2.46965670586 
10.2734375 7.15471553802 -2.232026577 
7.33203125 5.04077148438 -1.5929710865 
6.87109375 4.66252803802 -1.49282693863 
6.46484375 4.32913637161 -1.40456426144 
6.35546875 4.19914913177 -1.38080120087 
6.0234375 3.92599058151 -1.30866348743 
5.80859375 3.73409605026 -1.26198613644 
5.828125 3.69461488724 -1.26622951031 
5.859375 3.662109375 -1.27301895618 
5.88671875 3.62663912773 -1.27895975113 
5.92578125 3.59779572487 -1.28744649887 
5.734375 3.43038511276 -1.24586129189 
5.7109375 3.36537384987 -1.24076914787 
5.73828125 3.33025240898 -1.24670994282 
5.76953125 3.296875 -1.25349938869 
5.796875 3.2607421875 -1.25944006443 
5.828125 3.22628355026 -1.26622951031 
5.85546875 3.18913912773 -1.27217030525 
5.88671875 3.15359926224 -1.27895975113 
5.91796875 3.11750149727 -1.28574919701 
5.9453125 3.07882261276 -1.29168987274 
5.9765625 3.04164338112 -1.29847931862 
6.0078125 3.00390625 -1.3052687645 
6.0390625 2.96561098099 -1.31205821037 
6.0703125 2.9267578125 -1.31884765625 
6.1015625 2.88734650612 -1.32563710213 
6.13671875 2.84919095039 -1.33327519894 
6.16796875 2.80862855911 -1.34006464481 
6.203125 2.76925230026 -1.34770274162 
6.234375 2.7275390625 -1.3544921875 
6.26953125 2.68694186211 -1.36213028431 
6.3046875 2.64571714401 -1.36976838112 
6.3359375 2.60226011276 -1.376557827 
6.37109375 2.55981445312 -1.38419592381 
6.40625 2.51674103737 -1.39183402061 
6.44140625 2.47303986549 -1.39947223663 
6.48046875 2.43017578125 -1.40795898438 
6.515625 2.38518404961 -1.41559708118 
6.5546875 2.34095978737 -1.42408394814 
6.58984375 2.29467773438 -1.43172204494 
6.62890625 2.24909329414 -1.44020879269 
6.66796875 2.20281100273 -1.44869554043 
6.703125 2.15457582474 -1.45633375645 
6.7421875 2.10693359375 -1.46482050419 
6.78515625 2.05977964401 -1.47415602207 
6.82421875 2.01070737839 -1.48264276981 
6.86328125 1.9609375 -1.49112951756 
6.90625 1.91155135632 -1.50046503544 
6.9453125 1.8603515625 -1.50895178318 
6.98828125 1.80946564674 -1.51828730106 
7.03125 1.7578125 -1.52762281895 
7.07421875 1.70539200306 -1.53695821762 
7.1171875 1.65220427513 -1.5462937355 
7.16015625 1.59824919701 -1.55562913418 
7.20703125 1.54436385632 -1.56581330299 
7.25 1.48883926868 -1.57514882088 
7.296875 1.43331468105 -1.58533298969 
7.34375 1.376953125 -1.59551715851 
7.390625 1.31975448132 -1.60570120811 
7.4375 1.26171875 -1.61588537693 
7.484375 1.20284593105 -1.62606954575 
7.53515625 1.14372909069 -1.63710236549 
7.58203125 1.08314728737 -1.64728653431 
7.6328125 1.0222517252 -1.65831935406 
7.68359375 0.96044921875 -1.66935217381 
7.734375 0.897739946842 -1.68038499355 
7.7890625 0.834542393684 -1.69226658344 
7.83984375 0.769984662533 -1.70329940319 
7.89453125 0.704868853092 -1.71518087387 
7.94921875 0.638776481152 -1.72706246376 
8.0 0.571428596973 -1.73809528351 
8.0546875 0.50341796875 -1.74997675419 
8.109375 0.434430807829 -1.76185822487 
8.171875 0.364815860987 -1.77543711662 
8.2265625 0.293805807829 -1.7873185873 
8.2890625 0.222028464079 -1.80089747906 
8.34375 0.148995533586 -1.81277906895 
8.40625 0.0750558003783 -1.82635784149 
8.46875 0.0 -1.83993673325 
8.53125 -0.076171875 -1.853515625 
8.59375 -0.153459817171 -1.86709451675 
8.65625 -0.231863841414 -1.88067340851 
8.7265625 -0.311662942171 -1.89594960213 
8.7890625 -0.392368853092 -1.90952849388 
11.78125 -0.631138384342 -2.55961680412 
11.78125 -0.736328125 -2.55961680412 
11.78125 -0.841517865658 -2.55961680412 
11.7890625 -0.947335362434 -2.56131410599 
11.7890625 -1.05259490013 -2.56131410599 
11.7890625 -1.15785431862 -2.56131410599 
11.7890625 -1.26311385632 -2.56131410599 
11.7890625 -1.3683732748 -2.56131410599 
11.7890625 -1.4736328125 -2.56131410599 
11.7890625 -1.5788923502 -2.56131410599 
11.7890625 -1.68415176868 -2.56131410599 
11.7890625 -1.78941130638 -2.56131410599 
11.7890625 -1.89467072487 -2.56131410599 
11.7890625 -1.99993026257 -2.56131410599 
11.7890625 -2.10518980026 -2.56131410599 
11.7890625 -2.21044921875 -2.56131410599 
11.7890625 -2.31570863724 -2.56131410599 
11.7890625 -2.42096829414 -2.56131410599 
11.7890625 -2.52622771263 -2.56131410599 
11.7890625 -2.63148713112 -2.56131410599 
11.7890625 -2.73674654961 -2.56131410599 
11.7890625 -2.84200620651 -2.56131410599 
11.7890625 -2.947265625 -2.56131410599 
11.796875 -3.05454802513 -2.56301164627 
11.796875 -3.15987730026 -2.56301164627 
11.796875 -3.26520657539 -2.56301164627 
11.796875 -3.37053561211 -2.56301164627 
11.796875 -3.47586488724 -2.56301164627 
11.796875 -3.58119416237 -2.56301164627 
11.796875 -3.6865234375 -2.56301164627 
11.796875 -3.79185271263 -2.56301164627 
11.796875 -3.89718198776 -2.56301164627 
11.796875 -4.00251102448 -2.56301164627 
11.796875 -4.10784053802 -2.56301164627 
11.796875 -4.21316957474 -2.56301164627 
11.796875 -4.31849908829 -2.56301164627 
11.796875 -4.423828125 -2.56301164627 
11.796875 -4.52915716171 -2.56301164627 
11.796875 -4.63448667526 -2.56301164627 
11.796875 -4.73981571198 -2.56301164627 
11.796875 -4.84514522552 -2.56301164627 
11.796875 -4.95047426224 -2.56301164627 
11.796875 -5.05580377579 -2.56301164627 
11.8046875 -5.16455078125 -2.56470894814 
11.8046875 -5.26994991302 -2.56470894814 
11.8046875 -5.37534856796 -2.56470894814 
11.8046875 -5.48074769974 -2.56470894814 
11.8046875 -5.58614683151 -2.56470894814 
11.8046875 -5.69154596329 -2.56470894814 
11.8046875 -5.79694461823 -2.56470894814 
11.8046875 -5.90234375 -2.56470894814 
11.8046875 -6.00774288177 -2.56470894814 
11.8046875 -6.11314153671 -2.56470894814 
11.8046875 -6.21854066849 -2.56470894814 
11.8046875 -6.32393980026 -2.56470894814 
11.8046875 -6.42933893204 -2.56470894814 
11.8046875 -6.53473758698 -2.56470894814 
11.8046875 -6.64013671875 -2.56470894814 
11.8046875 -6.74553585052 -2.56470894814 
11.8046875 -6.85093450546 -2.56470894814 
11.8046875 -6.95633363724 -2.56470894814 
11.8046875 -7.06173276901 -2.56470894814 
11.8046875 -7.16713190079 -2.56470894814 
11.8046875 -7.27253055573 -2.56470894814 
11.8125 -7.3828125 -2.56640625 
11.8125 -7.48828125 -2.56640625 
11.8125 -7.59375 -2.56640625 
11.8125 -7.69921875 -2.56640625 
11.8125 -7.8046875 -2.56640625 
6.828125 -4.57240533829 -1.48349142075 
6.6953125 -4.54324769974 -1.45463633537 
6.62890625 -4.55737304688 -1.44020879269 
6.56640625 -4.57303285599 -1.42662990093 
6.5078125 -4.59033203125 -1.41389977932 
6.44921875 -4.60658502579 -1.4011695385 
6.390625 -4.62179136276 -1.38843941689 
6.3359375 -4.63881158829 -1.376557827 
6.27734375 -4.65195989609 -1.36382770538 
6.21875 -4.6640625 -1.35109746456 
6.15625 -4.67215394974 -1.33751857281 
6.09765625 -4.68212890625 -1.32478845119 
6.04296875 -4.69409179688 -1.31290686131 
5.98828125 -4.705078125 -1.30102539062 
5.9375 -4.71819210052 -1.28999257088 
5.90625 -4.74609375 -1.283203125 
5.88671875 -4.78295898438 -1.27895975113 
5.83984375 -4.79701471329 -1.26877558231 
5.8359375 -4.84591245651 -1.26792693138 
11.8203125 -9.92061901093 -2.56810355186 
11.8203125 -10.0261583328 -2.56810355186 
11.8203125 -10.131696701 -2.56810355186 
11.8203125 -10.2372350693 -2.56810355186 
11.8203125 -10.3427734375 -2.56810355186 
11.8203125 -10.4483118057 -2.56810355186 
11.8203125 -10.553850174 -2.56810355186 
11.8203125 -10.6593885422 -2.56810355186 
11.8203125 -10.7649278641 -2.56810355186 
6.8359375 -6.28662109375 -1.48518884182 
6.78125 -6.296875 -1.47330725193 
6.7421875 -6.32080078125 -1.46482050419 
6.7421875 -6.38099908829 -1.46482050419 
6.7421875 -6.44119691849 -1.46482050419 
6.7421875 -6.50139522552 -1.46482050419 
6.7421875 -6.56159305573 -1.46482050419 
6.7421875 -6.62179136276 -1.46482050419 
6.7421875 -6.68198919296 -1.46482050419 
11.28125 11.28125 -2.55171132088 
11.28125 11.180524826 -2.55171132088 
11.28125 11.0797986984 -2.55171132088 
11.28125 10.9790735245 -2.55171132088 
11.28125 10.8783483505 -2.55171132088 
11.28125 10.7776231766 -2.55171132088 
11.28125 10.676897049 -2.55171132088 
11.28125 10.576171875 -2.55171132088 
11.28125 10.475446701 -2.55171132088 
11.28125 10.3747205734 -2.55171132088 
11.28125 10.2739953995 -2.55171132088 
11.28125 10.1732702255 -2.55171132088 
11.28125 10.0725450516 -2.55171132088 
11.28125 9.97181892395 -2.55171132088 
11.28125 9.87109375 -2.55171132088 
11.28125 9.77036857605 -2.55171132088 
11.28125 9.66964244843 -2.55171132088 
11.28125 9.56891727448 -2.55171132088 
11.28125 9.46819210052 -2.55171132088 
11.2890625 9.37395381927 -2.55347847939 
11.2890625 9.27315807343 -2.55347847939 
11.2890625 9.17236328125 -2.55347847939 
11.2890625 9.07156848907 -2.55347847939 
11.2890625 8.97077274323 -2.55347847939 
11.2890625 8.86997795105 -2.55347847939 
11.2890625 8.7691822052 -2.55347847939 
11.2890625 8.66838741302 -2.55347847939 
11.2890625 8.56759166718 -2.55347847939 
11.2890625 8.466796875 -2.55347847939 
11.2890625 8.36600208282 -2.55347847939 
11.2109375 8.2080078125 -2.53580737114 
11.1015625 8.02880859375 -2.51106762886 
11.140625 7.95758914948 -2.51990318298 
11.2890625 7.96282100677 -2.55347847939 
10.2734375 7.15471553802 -2.32375383377 
7.33203125 5.04077148438 -1.65843558311 
6.87109375 4.66252803802 -1.55417597294 
6.46484375 4.32913637161 -1.46228611469 
6.15625 4.06752252579 -1.39248514175 
6.0234375 3.92599058151 -1.36244416237 
5.80859375 3.73409605026 -1.31384861469 
5.828125 3.69461488724 -1.31826639175 
5.859375 3.662109375 -1.32533478737 
5.88671875 3.62663912773 -1.33151972294 
5.92578125 3.59779572487 -1.34035527706 
5.734375 3.43038511276 -1.29706096649 
5.7109375 3.36537384987 -1.29175972939 
5.73828125 3.33025240898 -1.29794454575 
5.76953125 3.296875 -1.30501306057 
5.796875 3.2607421875 -1.31119787693 
5.828125 3.22628355026 -1.31826639175 
5.85546875 3.18913912773 -1.32445120811 
5.88671875 3.15359926224 -1.33151972294 
5.91796875 3.11750149727 -1.33858811855 
5.9453125 3.07882261276 -1.34477305412 
5.9765625 3.04164338112 -1.35184156895 
6.0078125 3.00390625 -1.35890996456 
6.0390625 2.96561098099 -1.36597847939 
6.0703125 2.9267578125 -1.373046875 
6.1015625 2.88734650612 -1.38011527061 
6.13671875 2.84919095039 -1.38806736469 
6.16796875 2.80862855911 -1.39513576031 
6.203125 2.76925230026 -1.40308785439 
6.234375 2.7275390625 -1.41015625 
6.26953125 2.68694186211 -1.41810822487 
6.3046875 2.64571714401 -1.42606031895 
6.3359375 2.60226011276 -1.43312871456 
6.37109375 2.55981445312 -1.44108068943 
6.40625 2.51674103737 -1.44903278351 
6.44140625 2.47303986549 -1.45698475838 
6.48046875 2.43017578125 -1.4658203125 
6.515625 2.38518404961 -1.47377228737 
6.5546875 2.34095978737 -1.48260784149 
6.58984375 2.29467773438 -1.49055993557 
6.62890625 2.24909329414 -1.49939548969 
6.66796875 2.20281100273 -1.50823104382 
6.703125 2.15457582474 -1.51618301868 
6.7421875 2.10693359375 -1.52501857281 
6.78515625 2.05977964401 -1.53473770618 
6.82421875 2.01070737839 -1.54357326031 
6.86328125 1.9609375 -1.55240881443 
6.90625 1.91155135632 -1.56212794781 
6.9453125 1.8603515625 -1.57096350193 
6.98828125 1.80946564674 -1.58068263531 
7.03125 1.7578125 -1.59040176868 
7.07421875 1.70539200306 -1.60012090206 
7.1171875 1.65220427513 -1.60984003544 
7.16015625 1.59824919701 -1.61955916882 
7.20703125 1.54436385632 -1.63016188145 
7.25 1.48883926868 -1.63988089561 
7.296875 1.43331468105 -1.65048360825 
7.34375 1.376953125 -1.66108632088 
7.390625 1.31975448132 -1.67168903351 
7.4375 1.26171875 -1.68229162693 
7.484375 1.20284593105 -1.69289433956 
7.53515625 1.14372909069 -1.70438063145 
7.58203125 1.08314728737 -1.71498322487 
7.6328125 1.0222517252 -1.72646951675 
7.68359375 0.96044921875 -1.73795568943 
7.734375 0.897739946842 -1.74944198132 
7.7890625 0.834542393684 -1.76181173325 
7.83984375 0.769984662533 -1.77329802513 
7.89453125 0.704868853092 -1.78566777706 
7.94921875 0.638776481152 -1.79803752899 
8.0 0.571428596973 -1.80952382088 
8.0546875 0.50341796875 -1.82189357281 
8.109375 0.434430807829 -1.83426344395 
8.171875 0.364815860987 -1.84840035439 
8.2265625 0.293805807829 -1.86077010632 
8.2890625 0.222028464079 -1.87490701675 
8.34375 0.148995533586 -1.88727676868 
8.40625 0.0750558003783 -1.90141367912 
8.46875 0.0 -1.91555058956 
8.53125 -0.076171875 -1.9296875 
8.59375 -0.153459817171 -1.94382441044 
8.65625 -0.231863841414 -1.95796132088 
8.7265625 -0.311662942171 -1.97386527061 
8.7890625 -0.392368853092 -1.98800218105 
11.3203125 -0.6064453125 -2.560546875 
11.3203125 -0.70751953125 -2.560546875 
11.3203125 -0.80859375 -2.560546875 
11.3203125 -0.90966796875 -2.560546875 
11.3203125 -1.0107421875 -2.560546875 
11.3203125 -1.11181640625 -2.560546875 
11.3203125 -1.212890625 -2.560546875 
11.3203125 -1.31396484375 -2.560546875 
11.3203125 -1.4150390625 -2.560546875 
11.3203125 -1.51611328125 -2.560546875 
11.3203125 -1.6171875 -2.560546875 
11.3203125 -1.71826171875 -2.560546875 
11.328125 -1.82059156895 -2.56231403351 
11.328125 -1.92173552513 -2.56231403351 
11.328125 -2.02287936211 -2.56231403351 
11.328125 -2.1240234375 -2.56231403351 
11.328125 -2.22516751289 -2.56231403351 
11.328125 -2.32631134987 -2.56231403351 
11.328125 -2.42745542526 -2.56231403351 
11.328125 -2.52859926224 -2.56231403351 
11.328125 -2.62974333763 -2.56231403351 
11.328125 -2.73088717461 -2.56231403351 
11.328125 -2.83203125 -2.56231403351 
11.328125 -2.93317532539 -2.56231403351 
11.328125 -3.03431916237 -2.56231403351 
11.328125 -3.13546323776 -2.56231403351 
11.328125 -3.23660707474 -2.56231403351 
11.328125 -3.33775115013 -2.56231403351 
11.328125 -3.43889498711 -2.56231403351 
11.328125 -3.5400390625 -2.56231403351 
11.328125 -3.64118313789 -2.56231403351 
11.328125 -3.74232697487 -2.56231403351 
11.328125 -3.84347105026 -2.56231403351 
11.328125 -3.94461488724 -2.56231403351 
11.3359375 -4.04854917526 -2.56408119202 
11.3359375 -4.14976263046 -2.56408119202 
11.3359375 -4.2509765625 -2.56408119202 
11.3359375 -4.35219049454 -2.56408119202 
11.3359375 -4.45340394974 -2.56408119202 
11.3359375 -4.55461788177 -2.56408119202 
11.3359375 -4.65583133698 -2.56408119202 
11.3359375 -4.75704526901 -2.56408119202 
11.3359375 -4.85825872421 -2.56408119202 
11.3359375 -4.95947265625 -2.56408119202 
11.3359375 -5.06068658829 -2.56408119202 
11.3359375 -5.16190004349 -2.56408119202 
11.3359375 -5.26311397552 -2.56408119202 
11.3359375 -5.36432743073 -2.56408119202 
11.3359375 -5.46554136276 -2.56408119202 
11.3359375 -5.56675481796 -2.56408119202 
11.3359375 -5.66796875 -2.56408119202 
11.3359375 -5.76918268204 -2.56408119202 
11.3359375 -5.87039613724 -2.56408119202 
11.3359375 -5.97161006927 -2.56408119202 
11.3359375 -6.07282352448 -2.56408119202 
11.3359375 -6.17403745651 -2.56408119202 
11.34375 -6.27957582474 -2.56584811211 
11.34375 -6.380859375 -2.56584811211 
11.34375 -6.48214292526 -2.56584811211 
11.34375 -6.58342647552 -2.56584811211 
11.34375 -6.68471002579 -2.56584811211 
11.34375 -6.78599309921 -2.56584811211 
11.34375 -6.88727664948 -2.56584811211 
11.34375 -6.98856019974 -2.56584811211 
11.34375 -7.08984375 -2.56584811211 
11.34375 -7.19112730026 -2.56584811211 
11.34375 -7.29241085052 -2.56584811211 
11.34375 -7.39369440079 -2.56584811211 
11.34375 -7.49497747421 -2.56584811211 
6.84375 -4.58286809921 -1.54799103737 
6.70703125 -4.55119991302 -1.51706659794 
6.64453125 -4.56811523438 -1.5029296875 
6.58203125 -4.58391475677 -1.48879277706 
6.5234375 -4.60135316849 -1.47553944588 
6.4609375 -4.61495542526 -1.46140253544 
6.40625 -4.63309144974 -1.44903278351 
6.34765625 -4.64739131927 -1.43577933311 
6.29296875 -4.66353940964 -1.42340958118 
6.23046875 -4.6728515625 -1.40927267075 
6.171875 -4.68401241302 -1.39601933956 
6.11328125 -4.69412660599 -1.38276600838 
6.0546875 -4.70319461823 -1.36951267719 
6.0 -4.71428585052 -1.35714280605 
5.9453125 -4.72440004349 -1.34477305412 
5.8984375 -4.73981571198 -1.33417034149 
5.8984375 -4.79248046875 -1.33417034149 
5.8515625 -4.806640625 -1.32356774807 
5.81640625 -4.82969427109 -1.31561565399 
7.9296875 -6.6552734375 -1.79361975193 
7.890625 -6.69294071198 -1.78478419781 
7.96875 -6.83035707474 -1.80245530605 
11.3515625 -9.83126354218 -2.56761527061 
11.3515625 -9.9326171875 -2.56761527061 
11.3515625 -10.0339708328 -2.56761527061 
11.3515625 -10.1353235245 -2.56761527061 
11.3515625 -10.2366771698 -2.56761527061 
11.3515625 -10.3380298615 -2.56761527061 
11.3515625 -10.4393835068 -2.56761527061 
6.68359375 -6.20619440079 -1.51176524162 
6.5859375 -6.17431640625 -1.48967635632 
6.52734375 -6.17766475677 -1.47642302513 
6.484375 -6.19489383698 -1.46670389175 
6.4765625 -6.24525690079 -1.46493673325 
6.4765625 -6.30308294296 -1.46493673325 
6.4765625 -6.36090946198 -1.46493673325 
6.4765625 -6.41873598099 -1.46493673325 
10.8515625 10.8515625 -2.55140900612 
10.8515625 10.7546739578 -2.55140900612 
10.8515625 10.657784462 -2.55140900612 
10.8515625 10.5608959198 -2.55140900612 
10.8515625 10.464006424 -2.55140900612 
10.8515625 10.3671178818 -2.55140900612 
10.8515625 10.2702283859 -2.55140900612 
10.8515625 10.1733398438 -2.55140900612 
10.859375 10.0837049484 -2.55324602127 
10.859375 9.98674678802 -2.55324602127 
10.859375 9.88978767395 -2.55324602127 
10.859375 9.79282951355 -2.55324602127 
10.859375 9.69587039948 -2.55324602127 
10.859375 9.59891223907 -2.55324602127 
10.859375 9.501953125 -2.55324602127 
10.859375 9.40499401093 -2.55324602127 
10.859375 9.30803585052 -2.55324602127 
10.859375 9.21107673645 -2.55324602127 
10.859375 9.11411857605 -2.55324602127 
10.859375 9.01715946198 -2.55324602127 
10.859375 8.92020130157 -2.55324602127 
10.859375 8.8232421875 -2.55324602127 
10.859375 8.72628307343 -2.55324602127 
10.859375 8.62932491302 -2.55324602127 
10.859375 8.53236579895 -2.55324602127 
10.859375 8.43540763855 -2.55324602127 
10.859375 8.33844852448 -2.55324602127 
10.859375 8.24149036407 -2.55324602127 
10.859375 8.14453125 -2.55324602127 
10.859375 8.04757213593 -2.55324602127 
10.859375 7.95061397552 -2.55324602127 
10.859375 7.85365533829 -2.55324602127 
10.859375 7.75669622421 -2.55324602127 
10.8671875 7.66524839401 -2.555082798 
10.8671875 7.56821966171 -2.555082798 
7.33203125 5.04077148438 -1.72390019894 
6.87109375 4.66252803802 -1.61552500725 
6.46484375 4.32913637161 -1.52000784874 
6.1015625 4.03138971329 -1.43459355831 
5.93359375 3.86743164062 -1.39510095119 
5.80859375 3.73409605026 -1.36571097374 
5.828125 3.69461488724 -1.37030315399 
5.859375 3.662109375 -1.37765061855 
5.88671875 3.62663912773 -1.38407969475 
5.92578125 3.59779572487 -1.39326405525 
5.734375 3.43038511276 -1.34826076031 
5.7109375 3.36537384987 -1.34275019169 
5.73828125 3.33025240898 -1.34917926788 
5.76953125 3.296875 -1.35652673244 
5.796875 3.2607421875 -1.36295568943 
5.828125 3.22628355026 -1.37030315399 
5.85546875 3.18913912773 -1.37673223019 
5.88671875 3.15359926224 -1.38407969475 
5.91796875 3.11750149727 -1.39142715931 
5.9453125 3.07882261276 -1.3978562355 
5.9765625 3.04164338112 -1.40520370007 
6.0078125 3.00390625 -1.41255116463 
6.0390625 2.96561098099 -1.41989862919 
6.0703125 2.9267578125 -1.42724609375 
6.1015625 2.88734650612 -1.43459355831 
6.13671875 2.84919095039 -1.44285941124 
6.16796875 2.80862855911 -1.45020699501 
6.203125 2.76925230026 -1.45847284794 
6.234375 2.7275390625 -1.4658203125 
6.26953125 2.68694186211 -1.47408616543 
6.3046875 2.64571714401 -1.48235213757 
6.3359375 2.60226011276 -1.48969960213 
6.37109375 2.55981445312 -1.49796545506 
6.40625 2.51674103737 -1.50623142719 
6.44140625 2.47303986549 -1.51449728012 
6.48046875 2.43017578125 -1.52368164062 
6.515625 2.38518404961 -1.53194749355 
6.5546875 2.34095978737 -1.54113185406 
6.58984375 2.29467773438 -1.54939782619 
6.62890625 2.24909329414 -1.55858206749 
6.6640625 2.20152068138 -1.56684803963 
6.703125 2.15457582474 -1.57603240013 
6.7421875 2.10693359375 -1.58521676064 
6.78515625 2.05977964401 -1.59531950951 
6.82421875 2.01070737839 -1.60450387001 
6.86328125 1.9609375 -1.61368811131 
6.90625 1.91155135632 -1.62379097939 
6.9453125 1.8603515625 -1.63297522068 
6.98828125 1.80946564674 -1.64307808876 
7.03125 1.7578125 -1.65318083763 
7.07421875 1.70539200306 -1.6632835865 
7.1171875 1.65220427513 -1.67338633537 
7.16015625 1.59824919701 -1.68348908424 
7.20703125 1.54436385632 -1.69451034069 
7.25 1.48883926868 -1.70461308956 
7.296875 1.43331468105 -1.71563434601 
7.34375 1.376953125 -1.72665548325 
