22.015625 10.8112440109 -2.22777152061 
22.078125 10.6448106766 -2.23409605026 
22.125 10.469865799 -2.23883938789 
22.1875 10.3013391495 -2.24516367912 
22.25 10.131696701 -2.25148820877 
22.3125 9.9609375 -2.2578125 
22.375 9.7890625 -2.26413679123 
22.4375 9.61607170105 -2.27046132088 
22.5 9.44196414948 -2.27678561211 
22.5625 9.26674079895 -2.28311014175 
22.625 9.09040164948 -2.28943443298 
22.6875 8.91294670105 -2.29575896263 
22.75 8.734375 -2.30208325386 
22.8125 8.5546875 -2.30840778351 
16.75 6.13169622421 -1.69494044781 
16.578125 5.92075872421 -1.67754840851 
16.5 5.74553585052 -1.66964280605 
16.46875 5.58761167526 -1.66648066044 
16.484375 5.44573116302 -1.66806173325 
16.515625 5.30859375 -1.67122399807 
16.578125 5.1806640625 -1.67754840851 
16.65625 5.05636167526 -1.68545389175 
15.71875 4.63141727448 -1.59058785439 
13.71875 3.91964292526 -1.38820683956 
13.15625 3.64146208763 -1.33128714561 
13.1875 3.53236603737 -1.33444941044 
12.46875 3.228515625 -1.26171875 
9.1328125 2.283203125 -0.924153625965 
8.6875 2.09430813789 -0.879092276096 
8.4609375 1.96414625645 -0.856166303158 
8.0 1.78571426868 -0.809523820877 
7.0546875 1.51171875 -0.7138671875 
6.71484375 1.37894117832 -0.679478228092 
6.7265625 1.3212890625 -0.6806640625 
6.74609375 1.26489257812 -0.682640433311 
6.78125 1.2109375 -0.686197936535 
6.49609375 1.10201585293 -0.657342791557 
6.5078125 1.0458984375 -0.658528625965 
6.52734375 0.990757524967 -0.660504996777 
6.546875 0.935267865658 -0.662481427193 
6.56640625 0.879429399967 -0.664457798004 
6.5859375 0.8232421875 -0.666434168816 
6.60546875 0.766706168652 -0.668410539627 
6.625 0.709821403027 -0.670386910439 
6.6484375 0.652971565723 -0.672758579254 
6.66796875 0.595354378223 -0.674734950066 
6.6875 0.537388384342 -0.676711320877 
6.70703125 0.479073673487 -0.678687691689 
6.73046875 0.420654296875 -0.681059360504 
6.75 0.361607134342 -0.683035731316 
6.76953125 0.302211225033 -0.685012102127 
6.79296875 0.242606028914 -0.687383770943 
6.8125 0.182477682829 -0.689360141754 
6.8359375 0.1220703125 -0.691731750965 
6.85546875 0.0612095408142 -0.693708121777 
6.87890625 0.0 -0.696079790592 
6.90234375 -0.0616280697286 -0.698451459408 
6.921875 -0.123604908586 -0.700427830219 
6.9453125 -0.18603515625 -0.702799499035 
6.96875 -0.248883932829 -0.705171108246 
6.98828125 -0.311976850033 -0.707147479057 
7.01171875 -0.375627785921 -0.709519147873 
7.03515625 -0.439697265625 -0.711890816689 
7.05859375 -0.504185259342 -0.714262485504 
7.08203125 -0.569091796875 -0.716634094715 
7.10546875 -0.634416878223 -0.719005763531 
7.125 -0.699776768684 -0.720982134342 
7.1484375 -0.765904009342 -0.723353803158 
7.17578125 -0.832903206348 -0.726120710373 
7.19921875 -0.89990234375 -0.728492379189 
7.22265625 -0.967320024967 -0.730864048004 
7.24609375 -1.03515625 -0.733235657215 
7.26953125 -1.10341095924 -0.735607326031 
7.29296875 -1.1720842123 -0.737978994846 
7.3203125 -1.24183869362 -0.740745902061 
7.34375 -1.31138396263 -0.743117570877 
7.3671875 -1.38134765625 -0.745489239693 
7.39453125 -1.45249724388 -0.748256146908 
7.41796875 -1.52333283424 -0.750627815723 
7.4453125 -1.59542405605 -0.753394722939 
7.46875 -1.66713166237 -0.755766391754 
7.49609375 -1.74016463757 -0.758533298969 
7.5234375 -1.8136857748 -0.761300206184 
7.546875 -1.88671875 -0.763671875 
7.57421875 -1.96118164062 -0.766438782215 
7.6015625 -2.0361328125 -0.769205749035 
7.62890625 -2.11157226562 -0.77197265625 
7.65625 -2.1875 -0.774739563465 
7.68359375 -2.26391601562 -0.777506530285 
7.70703125 -2.33963441849 -0.779878139496 
7.73828125 -2.41821289062 -0.783040344715 
7.765625 -2.49609375 -0.785807311535 
7.79296875 -2.57446289062 -0.78857421875 
7.8203125 -2.6533203125 -0.791341125965 
7.84765625 -2.73266601562 -0.794108092785 
7.875 -2.8125 -0.796875 
7.90625 -2.89425230026 -0.800037205219 
7.93359375 -2.97509765625 -0.802804112434 
7.96484375 -3.05793118477 -0.805966317654 
7.9921875 -3.13978791237 -0.808733284473 
8.0234375 -3.22370266914 -0.811895489693 
8.046875 -3.30496644974 -0.814267098904 
8.078125 -3.38992738724 -0.817429304123 
8.109375 -3.47544646263 -0.820591509342 
8.140625 -3.5615234375 -0.823753714561 
19.484375 -8.69838142395 -1.97163319588 
19.265625 -8.77274036407 -1.94949781895 
19.0625 -8.85044670105 -1.92894339561 
18.859375 -8.92452526093 -1.90838909149 
18.65625 -8.99497795105 -1.88783478737 
18.453125 -9.06180286407 -1.86728048325 
18.265625 -9.1328125 -1.84830725193 
18.078125 -9.20047473907 -1.82933402061 
17.890625 -9.26478767395 -1.81036090851 
17.703125 -9.32575321198 -1.79138767719 
17.53125 -9.39174079895 -1.77399551868 
17.359375 -9.45465946198 -1.75660347939 
17.1875 -9.51450920105 -1.73921132088 
17.015625 -9.5712890625 -1.72181916237 
16.859375 -9.63392829895 -1.70600819588 
16.6875 -9.68470954895 -1.68861603737 
16.53125 -9.74162960052 -1.67280507088 
16.375 -9.79575920105 -1.65699410439 
16.234375 -9.85658454895 -1.64276409149 
16.078125 -9.9052734375 -1.626953125 
15.9375 -9.9609375 -1.61272323132 
15.796875 -10.014090538 -1.59849333763 
15.65625 -10.0647325516 -1.58426344395 
15.515625 -10.112862587 -1.57003343105 
15.375 -10.1584825516 -1.55580353737 
15.2421875 -10.2068223953 -1.54236423969 
15.1171875 -10.2580919266 -1.52971541882 
14.984375 -10.3017578125 -1.51627600193 
14.859375 -10.348493576 -1.50362718105 
14.734375 -10.392996788 -1.49097847939 
14.609375 -10.4352674484 -1.47832965851 
14.484375 -10.4753065109 -1.46568083763 
14.3671875 -10.5188341141 -1.45382249355 
14.25 -10.5602674484 -1.44196426868 
14.140625 -10.60546875 -1.43089652061 
14.0234375 -10.6427869797 -1.41903829575 
13.9140625 -10.684012413 -1.40797066689 
13.8046875 -10.7232837677 -1.39690291882 
13.6953125 -10.760602951 -1.38583517075 
13.5859375 -10.7959680557 -1.37476754189 
13.484375 -10.8356580734 -1.36449027061 
13.3828125 -10.8735351562 -1.35421311855 
13.28125 -10.9095983505 -1.34393596649 
13.1796875 -10.9438476562 -1.33365881443 
13.078125 -10.9762830734 -1.32338166237 
12.984375 -11.0135326385 -1.31389510632 
12.890625 -11.0491075516 -1.30440843105 
12.796875 -11.0830078125 -1.294921875 
12.703125 -11.115234375 -1.28543531895 
12.609375 -11.1457872391 -1.27594864368 
12.5234375 -11.181640625 -1.26725256443 
12.4296875 -11.2089147568 -1.25776600838 
12.34375 -11.2416296005 -1.24906992912 
12.2578125 -11.2728099823 -1.24037384987 
12.171875 -11.3024549484 -1.23167777061 
12.0859375 -11.3305664062 -1.22298181057 
12.0078125 -11.3645372391 -1.21507620811 
11.921875 -11.3896484375 -1.20638024807 
11.84375 -11.420759201 -1.19847464561 
11.765625 -11.4504747391 -1.19056916237 
11.6875 -11.4787950516 -1.18266367912 
11.609375 -11.5057201385 -1.17475819588 
12.7578125 12.7578125 -1.4048781395 
12.9375 12.8219861984 -1.42466521263 
13.125 12.890625 -1.4453125 
13.3125 12.955915451 -1.46595978737 
13.5078125 13.025390625 -1.48746740818 
13.7109375 13.0988416672 -1.50983536243 
13.9140625 13.1686658859 -1.53220331669 
14.1328125 13.2495117188 -1.55629181862 
14.3515625 13.3264513016 -1.58038043976 
14.578125 13.406668663 -1.60532927513 
14.8125 13.4899549484 -1.63113844395 
15.0546875 13.5761022568 -1.657807827 
15.3046875 13.664899826 -1.6853376627 
15.5625 13.7561388016 -1.71372771263 
15.8359375 13.8564453125 -1.74383831024 
16.109375 13.9518690109 -1.77394902706 
16.390625 14.0491075516 -1.80491995811 
16.6875 14.1545763016 -1.83761155605 
17.0 14.2678575516 -1.87202382088 
17.3125 14.3755578995 -1.90643596649 
17.65625 14.5033483505 -1.94428944588 
18.0 14.625 -1.98214280605 
18.359375 14.753068924 -2.02171683311 
18.734375 14.887137413 -2.06301164627 
19.125 15.0267858505 -2.10602688789 
19.53125 15.1715955734 -2.15076255798 
19.953125 15.321149826 -2.19721913338 
20.359375 15.4513111115 -2.24195504189 
20.421875 15.31640625 -2.24883747101 
19.640625 14.555106163 -2.16280698776 
19.65625 14.3911828995 -2.16452741623 
19.734375 14.2721815109 -2.17313051224 
19.84375 14.1741075516 -2.18517494202 
20.078125 14.1622486115 -2.21098399162 
20.71875 14.4291296005 -2.28152894974 
20.78125 14.287109375 -2.28841137886 
20.828125 14.1333703995 -2.29357337952 
20.890625 13.9892578125 -2.30045580864 
20.9375 13.8337049484 -2.30561757088 
20.984375 13.677315712 -2.31077933311 
21.046875 13.530134201 -2.31766176224 
21.09375 13.371931076 -2.32282376289 
21.15625 13.22265625 -2.32970619202 
21.203125 13.0626392365 -2.33486795425 
21.265625 12.911272049 -2.34175038338 
21.328125 12.7587890625 -2.3486328125 
21.375 12.5959825516 -2.35379457474 
21.4375 12.44140625 -2.36067700386 
21.484375 12.2767858505 -2.36583900452 
21.546875 12.1201171875 -2.37272143364 
21.609375 11.9623327255 -2.37960386276 
21.65625 11.794921875 -2.384765625 
21.71875 11.6350450516 -2.39164805412 
21.78125 11.4740514755 -2.39853048325 
21.828125 11.303850174 -2.40369224548 
21.890625 11.1407642365 -2.41057467461 
21.953125 10.9765625 -2.41745710373 
22.015625 10.8112440109 -2.42433977127 
22.078125 10.6448106766 -2.43122220039 
22.125 10.469865799 -2.43638396263 
22.1875 10.3013391495 -2.44326639175 
22.9375 10.4447546005 -2.52585554123 
22.9375 10.2399549484 -2.52585554123 
22.9375 10.03515625 -2.52585554123 
22.9375 9.83035755157 -2.52585554123 
22.9375 9.62555789948 -2.52585554123 
22.9375 9.42075920105 -2.52585554123 
22.9375 9.21595954895 -2.52585554123 
22.9375 9.01116085052 -2.52585554123 
22.9375 8.80636119843 -2.52585554123 
22.9375 8.6015625 -2.52585554123 
16.765625 6.13741636276 -1.84621465206 
16.578125 5.92075872421 -1.82556736469 
16.5 5.74553585052 -1.81696426868 
16.46875 5.58761167526 -1.81352305412 
16.484375 5.44573116302 -1.81524372101 
16.515625 5.30859375 -1.81868493557 
16.578125 5.1806640625 -1.82556736469 
16.65625 5.05636167526 -1.83417034149 
15.71875 4.63141727448 -1.73093378544 
13.71875 3.91964292526 -1.51069569588 
13.15625 3.64146208763 -1.44875371456 
13.1875 3.53236603737 -1.45219492912 
8.859375 2.2939453125 -0.9755859375 
8.7578125 2.189453125 -0.964401960373 
8.6875 2.09430813789 -0.956659197807 
8.453125 1.96233260632 -0.930850088596 
8.0 1.78571426868 -0.880952358246 
7.0546875 1.51171875 -0.77685546875 
6.71484375 1.37894117832 -0.739432215691 
6.7265625 1.3212890625 -0.74072265625 
6.74609375 1.26489257812 -0.742873430252 
6.78125 1.2109375 -0.746744811535 
6.49609375 1.10201585293 -0.715343654156 
6.5078125 1.0458984375 -0.716634094715 
6.52734375 0.990757524967 -0.718784868717 
6.546875 0.935267865658 -0.720935642719 
6.56640625 0.879429399967 -0.723086416721 
6.5859375 0.8232421875 -0.725237190723 
6.60546875 0.766706168652 -0.727387905121 
6.625 0.709821403027 -0.729538679123 
6.6484375 0.652971565723 -0.732119619846 
6.66796875 0.595354378223 -0.734270393848 
6.6875 0.537388384342 -0.736421108246 
6.70703125 0.479073673487 -0.738571882248 
6.73046875 0.420654296875 -0.741152822971 
6.75 0.361607134342 -0.743303596973 
6.76953125 0.302211225033 -0.745454311371 
6.79296875 0.242606028914 -0.748035252094 
6.8125 0.182477682829 -0.750186026096 
6.8359375 0.1220703125 -0.752766907215 
6.85546875 0.0612095408142 -0.754917681217 
6.87890625 0.0 -0.757498621941 
6.90234375 -0.0616280697286 -0.760079503059 
6.921875 -0.123604908586 -0.762230277061 
6.9453125 -0.18603515625 -0.764811217785 
6.96875 -0.248883932829 -0.767392098904 
6.98828125 -0.311976850033 -0.769542872906 
7.01171875 -0.375627785921 -0.772123813629 
7.03515625 -0.439697265625 -0.774704694748 
7.05859375 -0.504185259342 -0.777285635471 
7.08203125 -0.569091796875 -0.77986651659 
7.10546875 -0.634416878223 -0.782447457314 
7.125 -0.699776768684 -0.784598231316 
7.1484375 -0.765904009342 -0.787179112434 
7.17578125 -0.832903206348 -0.790190219879 
7.19921875 -0.89990234375 -0.792771100998 
7.22265625 -0.967320024967 -0.795352041721 
7.24609375 -1.03515625 -0.79793292284 
7.26953125 -1.10341095924 -0.800513863564 
7.29296875 -1.1720842123 -0.803094744682 
7.3203125 -1.24183869362 -0.806105852127 
7.34375 -1.31138396263 -0.808686733246 
7.3671875 -1.38134765625 -0.811267673969 
7.39453125 -1.45249724388 -0.814278721809 
7.41796875 -1.52333283424 -0.816859662533 
7.4453125 -1.59542405605 -0.819870710373 
7.46875 -1.66713166237 -0.822451651096 
7.49609375 -1.74016463757 -0.825462698936 
7.5234375 -1.8136857748 -0.828473746777 
7.546875 -1.88671875 -0.8310546875 
7.57421875 -1.96118164062 -0.83406573534 
7.6015625 -2.0361328125 -0.837076842785 
7.62890625 -2.11157226562 -0.840087890625 
7.65625 -2.1875 -0.843098938465 
7.68359375 -2.26391601562 -0.84611004591 
7.70703125 -2.33963441849 -0.848690927029 
7.73828125 -2.41821289062 -0.85213214159 
7.765625 -2.49609375 -0.855143249035 
7.79296875 -2.57446289062 -0.858154296875 
7.8203125 -2.6533203125 -0.861165344715 
7.84765625 -2.73266601562 -0.86417645216 
7.875 -2.8125 -0.8671875 
7.90625 -2.89425230026 -0.870628714561 
7.93359375 -2.97509765625 -0.873639762402 
7.96484375 -3.05793118477 -0.877081036568 
7.9921875 -3.13978791237 -0.880092084408 
8.0234375 -3.22370266914 -0.883533298969 
8.046875 -3.30496644974 -0.886114239693 
8.078125 -3.38992738724 -0.889555454254 
8.109375 -3.47544646263 -0.892996668816 
8.140625 -3.5615234375 -0.896437883377 
19.484375 -8.69838142395 -2.14560079575 
19.265625 -8.77274036407 -2.12151217461 
19.0625 -8.85044670105 -2.09914445877 
18.859375 -8.92452526093 -2.07677650452 
18.65625 -8.99497795105 -2.05440855026 
18.453125 -9.06180286407 -2.03204059601 
18.265625 -9.1328125 -2.01139330864 
18.078125 -9.20047473907 -1.99074590206 
17.890625 -9.26478767395 -1.97009861469 
17.703125 -9.32575321198 -1.94945120811 
17.53125 -9.39174079895 -1.93052458763 
17.359375 -9.45465946198 -1.91159784794 
17.1875 -9.51450920105 -1.89267110825 
17.015625 -9.5712890625 -1.87374436855 
16.859375 -9.63392829895 -1.85653829575 
16.6875 -9.68470954895 -1.83761155605 
16.53125 -9.74162960052 -1.82040548325 
16.375 -9.79575920105 -1.80319941044 
16.234375 -9.85658454895 -1.78771388531 
16.078125 -9.9052734375 -1.7705078125 
15.9375 -9.9609375 -1.75502228737 
15.796875 -10.014090538 -1.73953688145 
15.65625 -10.0647325516 -1.72405135632 
15.515625 -10.112862587 -1.70856583118 
15.375 -10.1584825516 -1.69308030605 
15.2421875 -10.2068223953 -1.67845511436 
15.1171875 -10.2580919266 -1.66469025612 
14.984375 -10.3017578125 -1.65006506443 
14.859375 -10.348493576 -1.63630020618 
14.734375 -10.392996788 -1.62253534794 
14.609375 -10.4352674484 -1.60877048969 
14.484375 -10.4753065109 -1.59500563145 
14.3671875 -10.5188341141 -1.58210098743 
14.25 -10.5602674484 -1.56919646263 
14.140625 -10.60546875 -1.55715215206 
14.0234375 -10.6427869797 -1.54424762726 
13.9140625 -10.684012413 -1.53220331669 
13.8046875 -10.7232837677 -1.52015900612 
13.6953125 -10.760602951 -1.50811481476 
13.5859375 -10.7959680557 -1.49607050419 
13.484375 -10.8356580734 -1.48488652706 
13.3828125 -10.8735351562 -1.47370254993 
13.28125 -10.9095983505 -1.46251857281 
13.1796875 -10.9438476562 -1.45133459568 
13.078125 -10.9762830734 -1.44015061855 
12.984375 -11.0135326385 -1.42982697487 
12.890625 -11.0491075516 -1.41950333118 
12.796875 -11.0830078125 -1.4091796875 
12.703125 -11.115234375 -1.39885604382 
12.609375 -11.1457872391 -1.38853240013 
12.5234375 -11.181640625 -1.37906897068 
12.4296875 -11.2089147568 -1.368745327 
12.34375 -11.2416296005 -1.35928201675 
12.2578125 -11.2728099823 -1.3498185873 
12.171875 -11.3024549484 -1.34035527706 
12.0859375 -11.3305664062 -1.33089196682 
12.0078125 -11.3645372391 -1.32228887081 
11.921875 -11.3896484375 -1.31282556057 
11.84375 -11.420759201 -1.30422246456 
11.765625 -11.4504747391 -1.29561936855 
11.6875 -11.4787950516 -1.28701639175 
11.609375 -11.5057201385 -1.27841329575 
12.7578125 12.7578125 -1.51878714561 
12.9375 12.8219861984 -1.54017853737 
13.125 12.890625 -1.5625 
13.3125 12.955915451 -1.58482146263 
13.5078125 13.025390625 -1.60807287693 
13.7109375 13.0988416672 -1.63225448132 
13.9140625 13.1686658859 -1.65643596649 
14.1328125 13.2495117188 -1.68247771263 
14.3515625 13.3264513016 -1.70851933956 
14.578125 13.406668663 -1.73549103737 
14.8125 13.4899549484 -1.76339280605 
15.0546875 13.5761022568 -1.79222464561 
15.3046875 13.664899826 -1.82198655605 
15.5625 13.7561388016 -1.85267853737 
15.8359375 13.8564453125 -1.88523066044 
16.109375 13.9518690109 -1.91778278351 
16.390625 14.0491075516 -1.95126485825 
16.6875 14.1545763016 -1.98660719395 
17.0 14.2678575516 -2.02380943298 
17.3125 14.3755578995 -2.06101179123 
17.65625 14.5033483505 -2.10193443298 
18.0 14.625 -2.14285707474 
18.359375 14.753068924 -2.18563985825 
18.734375 14.887137413 -2.23028278351 
19.125 15.0267858505 -2.27678561211 
19.53125 15.1715955734 -2.32514882088 
19.953125 15.321149826 -2.37537193298 
20.359375 15.4513111115 -2.42373514175 
20.421875 15.31640625 -2.43117570877 
19.65625 14.5666856766 -2.34002971649 
19.671875 14.4026231766 -2.34188985825 
19.734375 14.2721815109 -2.34933042526 
19.859375 14.1852674484 -2.36421132088 
20.140625 14.2063341141 -2.39769339561 
21.234375 14.788225174 -2.52790188789 
21.234375 14.5986328125 -2.52790188789 
21.234375 14.409040451 -2.52790188789 
21.234375 14.2194471359 -2.52790188789 
21.234375 14.0298547745 -2.52790188789 
21.234375 13.840262413 -2.52790188789 
21.234375 13.6506700516 -2.52790188789 
21.234375 13.4610767365 -2.52790188789 
21.234375 13.271484375 -2.52790188789 
21.234375 13.0818920135 -2.52790188789 
21.234375 12.8922986984 -2.52790188789 
21.234375 12.702706337 -2.52790188789 
21.234375 12.5131139755 -2.52790188789 
21.234375 12.3235216141 -2.52790188789 
21.234375 12.133928299 -2.52790188789 
21.234375 11.9443359375 -2.52790188789 
21.234375 11.754743576 -2.52790188789 
21.234375 11.5651502609 -2.52790188789 
21.234375 11.3755578995 -2.52790188789 
21.234375 11.185965538 -2.52790188789 
21.234375 10.9963731766 -2.52790188789 
21.234375 10.8067798615 -2.52790188789 
21.234375 10.6171875 -2.52790188789 
21.234375 10.4275951385 -2.52790188789 
21.234375 10.2380018234 -2.52790188789 
21.234375 10.048409462 -2.52790188789 
21.234375 9.85881710052 -2.52790188789 
21.234375 9.66922473907 -2.52790188789 
21.234375 9.47963142395 -2.52790188789 
21.234375 9.2900390625 -2.52790188789 
21.234375 9.10044670105 -2.52790188789 
21.234375 8.91085338593 -2.52790188789 
21.234375 8.72126102448 -2.52790188789 
21.234375 8.53166866302 -2.52790188789 
21.234375 8.34207630157 -2.52790188789 
21.234375 8.15248298645 -2.52790188789 
21.234375 7.962890625 -2.52790188789 
21.234375 7.77329778671 -2.52790188789 
16.609375 5.93191957474 -1.97730660439 
16.53125 5.75641727448 -1.96800589561 
16.5 5.59821414948 -1.96428573132 
16.5 5.45089292526 -1.96428573132 
16.546875 5.31863832474 -1.96986603737 
16.609375 5.1904296875 -1.97730660439 
16.703125 5.07059144974 -1.98846721649 
15.71875 4.63141727448 -1.87127971649 
13.71875 3.91964292526 -1.63318455219 
13.15625 3.64146208763 -1.56622028351 
13.1875 3.53236603737 -1.56994044781 
9.2734375 2.40115785599 -1.10398066044 
8.625 2.15625 -1.02678573132 
8.5703125 2.06605744362 -1.02027535439 
8.453125 1.96233260632 -1.00632441044 
8.0 1.78571426868 -0.952380955219 
7.1953125 1.54185271263 -0.856584846973 
6.71484375 1.37894117832 -0.799386143684 
6.7265625 1.3212890625 -0.80078125 
6.74609375 1.26489257812 -0.803106427193 
6.78125 1.2109375 -0.807291686535 
6.49609375 1.10201585293 -0.773344516754 
6.5078125 1.0458984375 -0.774739563465 
6.52734375 0.990757524967 -0.777064740658 
6.546875 0.935267865658 -0.779389858246 
6.56640625 0.879429399967 -0.781715035439 
6.5859375 0.8232421875 -0.784040153027 
6.60546875 0.766706168652 -0.786365330219 
6.625 0.709821403027 -0.788690447807 
6.6484375 0.652971565723 -0.791480660439 
6.66796875 0.595354378223 -0.793805778027 
6.6875 0.537388384342 -0.796130955219 
6.70703125 0.479073673487 -0.798456072807 
6.73046875 0.420654296875 -0.801246285439 
6.75 0.361607134342 -0.803571403027 
6.76953125 0.302211225033 -0.805896580219 
6.79296875 0.242606028914 -0.808686733246 
6.8125 0.182477682829 -0.811011910439 
6.8359375 0.1220703125 -0.813802063465 
6.85546875 0.0612095408142 -0.816127240658 
6.87890625 0.0 -0.818917393684 
6.8984375 -0.0615931935608 -0.821242570877 
6.921875 -0.123604908586 -0.824032723904 
6.9453125 -0.18603515625 -0.826822936535 
6.96875 -0.248883932829 -0.829613089561 
6.98828125 -0.311976850033 -0.831938266754 
7.01171875 -0.375627785921 -0.834728419781 
7.03515625 -0.439697265625 -0.837518572807 
7.05859375 -0.504185259342 -0.840308785439 
7.08203125 -0.569091796875 -0.843098938465 
7.10546875 -0.634416878223 -0.845889151096 
7.125 -0.699776768684 -0.848214268684 
7.1484375 -0.765904009342 -0.851004481316 
7.17578125 -0.832903206348 -0.854259669781 
7.19921875 -0.89990234375 -0.857049822807 
7.22265625 -0.967320024967 -0.859840035439 
7.24609375 -1.03515625 -0.862630188465 
7.26953125 -1.10341095924 -0.865420401096 
7.29296875 -1.1720842123 -0.868210554123 
7.3203125 -1.24183869362 -0.871465802193 
7.34375 -1.31138396263 -0.874255955219 
7.3671875 -1.38134765625 -0.877046108246 
7.39453125 -1.45249724388 -0.880301356316 
7.41796875 -1.52333283424 -0.883091509342 
7.4453125 -1.59542405605 -0.886346697807 
7.46875 -1.66713166237 -0.889136910439 
7.49609375 -1.74016463757 -0.892392098904 
7.5234375 -1.8136857748 -0.895647346973 
7.546875 -1.88671875 -0.8984375 
7.57421875 -1.96118164062 -0.901692688465 
7.6015625 -2.0361328125 -0.904947936535 
7.62890625 -2.11157226562 -0.908203125 
7.65625 -2.1875 -0.911458313465 
7.68359375 -2.26391601562 -0.914713561535 
7.70703125 -2.33963441849 -0.917503714561 
7.73828125 -2.41821289062 -0.921223938465 
7.765625 -2.49609375 -0.924479186535 
7.79296875 -2.57446289062 -0.927734375 
7.8203125 -2.6533203125 -0.930989563465 
7.84765625 -2.73266601562 -0.934244811535 
7.875 -2.8125 -0.9375 
7.90625 -2.89425230026 -0.941220223904 
7.93359375 -2.97509765625 -0.944475471973 
7.96484375 -3.05793118477 -0.948195695877 
7.9921875 -3.13978791237 -0.951450884342 
8.0234375 -3.22370266914 -0.955171108246 
8.046875 -3.30496644974 -0.957961320877 
8.078125 -3.38992738724 -0.961681544781 
8.109375 -3.47544646263 -0.965401768684 
8.140625 -3.5615234375 -0.969122052193 
19.484375 -8.69838142395 -2.31956839561 
19.265625 -8.77274036407 -2.29352688789 
19.0625 -8.85044670105 -2.26934528351 
18.859375 -8.92452526093 -2.24516367912 
18.65625 -8.99497795105 -2.22098207474 
18.453125 -9.06180286407 -2.19680070877 
18.265625 -9.1328125 -2.17447924614 
18.078125 -9.20047473907 -2.15215778351 
17.890625 -9.26478767395 -2.12983632088 
17.703125 -9.32575321198 -2.10751485825 
17.53125 -9.39174079895 -2.08705353737 
17.359375 -9.45465946198 -2.06659221649 
17.1875 -9.51450920105 -2.04613089561 
17.015625 -9.5712890625 -2.02566957474 
16.859375 -9.63392829895 -2.00706839561 
16.6875 -9.68470954895 -1.98660719395 
16.53125 -9.74162960052 -1.96800589561 
16.375 -9.79575920105 -1.94940471649 
16.234375 -9.85658454895 -1.93266367912 
16.078125 -9.9052734375 -1.9140625 
15.9375 -9.9609375 -1.89732146263 
15.796875 -10.014090538 -1.88058030605 
15.65625 -10.0647325516 -1.86383926868 
15.515625 -10.112862587 -1.84709823132 
15.375 -10.1584825516 -1.83035719395 
15.2421875 -10.2068223953 -1.81454610825 
15.1171875 -10.2580919266 -1.79966521263 
14.984375 -10.3017578125 -1.78385412693 
14.859375 -10.348493576 -1.76897323132 
14.734375 -10.392996788 -1.75409221649 
14.609375 -10.4352674484 -1.73921132088 
14.484375 -10.4753065109 -1.72433030605 
14.3671875 -10.5188341141 -1.71037948132 
14.25 -10.5602674484 -1.69642853737 
14.140625 -10.60546875 -1.68340778351 
14.0234375 -10.6427869797 -1.66945683956 
13.9140625 -10.684012413 -1.65643596649 
13.8046875 -10.7232837677 -1.64341521263 
13.6953125 -10.760602951 -1.63039433956 
13.5859375 -10.7959680557 -1.61737346649 
13.484375 -10.8356580734 -1.60528278351 
13.3828125 -10.8735351562 -1.59319198132 
13.28125 -10.9095983505 -1.58110117912 
13.1796875 -10.9438476562 -1.56901037693 
13.078125 -10.9762830734 -1.55691969395 
12.984375 -11.0135326385 -1.54575896263 
12.890625 -11.0491075516 -1.53459823132 
12.796875 -11.0830078125 -1.5234375 
12.703125 -11.115234375 -1.51227676868 
12.609375 -11.1457872391 -1.50111603737 
12.5234375 -11.181640625 -1.49088537693 
12.4296875 -11.2089147568 -1.47972464561 
12.34375 -11.2416296005 -1.46949410439 
12.2578125 -11.2728099823 -1.45926344395 
12.171875 -11.3024549484 -1.44903278351 
12.0859375 -11.3305664062 -1.43880212307 
12.0078125 -11.3645372391 -1.42950153351 
11.921875 -11.3896484375 -1.41927087307 
11.84375 -11.420759201 -1.40997028351 
11.765625 -11.4504747391 -1.40066969395 
11.6875 -11.4787950516 -1.39136910439 
11.609375 -11.5057201385 -1.38206839561 
12.7578125 12.7578125 -1.63269627094 
12.9375 12.8219861984 -1.65569198132 
13.125 12.890625 -1.6796875 
13.3125 12.955915451 -1.70368301868 
13.5078125 13.025390625 -1.72867834568 
13.7109375 13.0988416672 -1.7546736002 
13.9140625 13.1686658859 -1.7806687355 
14.1328125 13.2495117188 -1.80866348743 
14.3515625 13.3264513016 -1.83665823936 
14.578125 13.406668663 -1.86565291882 
14.8125 13.4899549484 -1.89564728737 
15.0546875 13.5761022568 -1.92664158344 
15.3046875 13.664899826 -1.95863556862 
15.5625 13.7561388016 -1.99162948132 
15.8359375 13.8564453125 -2.02662301064 
16.109375 13.9518690109 -2.06161642075 
16.390625 14.0491075516 -2.09760975838 
16.6875 14.1545763016 -2.13560271263 
17.0 14.2678575516 -2.17559528351 
17.3125 14.3755578995 -2.21558785439 
17.65625 14.5033483505 -2.25957965851 
18.0 14.625 -2.30357146263 
18.359375 14.753068924 -2.34956288338 
18.734375 14.887137413 -2.39755392075 
19.125 15.0267858505 -2.44754457474 
19.53125 15.1715955734 -2.49953508377 
19.765625 15.1771764755 -2.52952933311 
19.765625 15.0006971359 -2.52952933311 
19.765625 14.82421875 -2.52952933311 
19.6875 14.58984375 -2.51953125 
19.671875 14.4026231766 -2.51753163338 
19.75 14.2834825516 -2.52752971649 
19.765625 14.118303299 -2.52952933311 
19.765625 13.941824913 -2.52952933311 
19.765625 13.7653455734 -2.52952933311 
19.765625 13.5888671875 -2.52952933311 
19.765625 13.4123888016 -2.52952933311 
19.765625 13.235909462 -2.52952933311 
19.765625 13.059431076 -2.52952933311 
19.765625 12.8829517365 -2.52952933311 
19.765625 12.7064733505 -2.52952933311 
19.765625 12.5299940109 -2.52952933311 
19.765625 12.353515625 -2.52952933311 
19.765625 12.1770372391 -2.52952933311 
19.765625 12.0005578995 -2.52952933311 
19.765625 11.8240795135 -2.52952933311 
19.765625 11.647600174 -2.52952933311 
19.765625 11.471121788 -2.52952933311 
19.765625 11.2946424484 -2.52952933311 
19.765625 11.1181640625 -2.52952933311 
19.765625 10.9416856766 -2.52952933311 
19.765625 10.765206337 -2.52952933311 
19.765625 10.588727951 -2.52952933311 
19.765625 10.4122486115 -2.52952933311 
19.765625 10.2357702255 -2.52952933311 
19.765625 10.0592908859 -2.52952933311 
19.78125 9.890625 -2.53152894974 
19.78125 9.71400642395 -2.53152894974 
19.78125 9.53738880157 -2.53152894974 
19.78125 9.36077022552 -2.53152894974 
19.78125 9.18415164948 -2.53152894974 
19.78125 9.00753307343 -2.53152894974 
19.78125 8.83091545105 -2.53152894974 
19.78125 8.654296875 -2.53152894974 
19.78125 8.47767829895 -2.53152894974 
19.78125 8.30106067657 -2.53152894974 
19.78125 8.12444210052 -2.53152894974 
19.78125 7.94782352448 -2.53152894974 
19.78125 7.77120542526 -2.53152894974 
19.78125 7.59458684921 -2.53152894974 
19.78125 7.41796875 -2.53152894974 
19.78125 7.24135065079 -2.53152894974 
16.734375 5.9765625 -2.1416015625 
16.609375 5.78362178802 -2.12560462952 
16.5625 5.61941957474 -2.11960554123 
16.5625 5.47153997421 -2.11960554123 
16.609375 5.33872747421 -2.12560462952 
16.671875 5.2099609375 -2.13360309601 
16.78125 5.09430789948 -2.14760041237 
15.71875 4.63141727448 -2.01162576675 
13.71875 3.91964292526 -1.75567340851 
13.15625 3.64146208763 -1.68368673325 
13.1875 3.53236603737 -1.68768596649 
12.46875 3.228515625 -1.595703125 
8.9765625 2.244140625 -1.14878630638 
8.6875 2.09430813789 -1.11179316044 
8.453125 1.96233260632 -1.08179879189 
8.0 1.78571426868 -1.02380955219 
7.49609375 1.60630583763 -0.959321498871 
6.71484375 1.37894117832 -0.859340131283 
6.7265625 1.3212890625 -0.86083984375 
6.74609375 1.26489257812 -0.863339364529 
6.78125 1.2109375 -0.867838561535 
6.49609375 1.10201585293 -0.831345319748 
6.5078125 1.0458984375 -0.832845032215 
6.52734375 0.990757524967 -0.835344612598 
6.546875 0.935267865658 -0.837844133377 
6.56640625 0.879429399967 -0.840343654156 
6.5859375 0.8232421875 -0.842843174934 
6.60546875 0.766706168652 -0.845342755318 
6.625 0.709821403027 -0.847842276096 
6.6484375 0.652971565723 -0.850841701031 
6.66796875 0.595354378223 -0.853341221809 
6.6875 0.537388384342 -0.855840802193 
6.70703125 0.479073673487 -0.858340322971 
6.73046875 0.420654296875 -0.861339747906 
6.75 0.361607134342 -0.863839268684 
6.76953125 0.302211225033 -0.866338849068 
6.79296875 0.242606028914 -0.869338274002 
6.8125 0.182477682829 -0.871837794781 
6.8359375 0.1220703125 -0.874837219715 
6.85546875 0.0612095408142 -0.877336800098 
6.87890625 0.0 -0.880336225033 
6.8984375 -0.0615931935608 -0.882835745811 
6.921875 -0.123604908586 -0.885835170746 
6.9453125 -0.18603515625 -0.888834655285 
6.96875 -0.248883932829 -0.891834080219 
6.98828125 -0.311976850033 -0.894333600998 
7.01171875 -0.375627785921 -0.897333025932 
7.03515625 -0.439697265625 -0.900332510471 
7.05859375 -0.504185259342 -0.903331935406 
7.08203125 -0.569091796875 -0.90633136034 
7.10546875 -0.634416878223 -0.909330844879 
7.125 -0.699776768684 -0.911830365658 
7.1484375 -0.765904009342 -0.914829790592 
7.17578125 -0.832903206348 -0.918329119682 
7.19921875 -0.89990234375 -0.921328604221 
7.22265625 -0.967320024967 -0.924328029156 
7.24609375 -1.03515625 -0.92732745409 
7.26953125 -1.10341095924 -0.930326938629 
7.29296875 -1.1720842123 -0.933326363564 
7.3203125 -1.24183869362 -0.936825692654 
7.34375 -1.31138396263 -0.939825177193 
7.3671875 -1.38134765625 -0.942824602127 
7.39453125 -1.45249724388 -0.946323931217 
7.41796875 -1.52333283424 -0.949323356152 
7.4453125 -1.59542405605 -0.952822744846 
7.46875 -1.66713166237 -0.955822169781 
7.49609375 -1.74016463757 -0.959321498871 
7.5234375 -1.8136857748 -0.962820887566 
7.546875 -1.88671875 -0.9658203125 
7.57421875 -1.96118164062 -0.96931964159 
7.6015625 -2.0361328125 -0.972819030285 
7.62890625 -2.11157226562 -0.976318359375 
7.65625 -2.1875 -0.979817688465 
7.68359375 -2.26391601562 -0.98331707716 
7.70703125 -2.33963441849 -0.986316502094 
7.73828125 -2.41821289062 -0.99031573534 
7.765625 -2.49609375 -0.993815124035 
7.79296875 -2.57446289062 -0.997314453125 
7.8203125 -2.6533203125 -1.00081384182 
7.84765625 -2.73266601562 -1.00431311131 
7.875 -2.8125 -1.0078125 
7.90625 -2.89425230026 -1.01181173325 
7.93359375 -2.97509765625 -1.01531112194 
7.96484375 -3.05793118477 -1.01931035519 
7.9921875 -3.13978791237 -1.02280974388 
8.0234375 -3.22370266914 -1.02680897713 
8.046875 -3.30496644974 -1.02980840206 
8.078125 -3.38992738724 -1.03380763531 
8.109375 -3.47544646263 -1.03780686855 
8.140625 -3.5615234375 -1.04180622101 
19.484375 -8.69838142395 -2.49353599548 
19.265625 -8.77274036407 -2.46554136276 
19.0625 -8.85044670105 -2.43954610825 
18.859375 -8.92452526093 -2.41355085373 
18.65625 -8.99497795105 -2.38755583763 
18.453125 -9.06180286407 -2.36156058311 
18.265625 -9.1328125 -2.33756518364 
18.078125 -9.20047473907 -2.31356954575 
17.890625 -9.26478767395 -2.28957414627 
17.703125 -9.32575321198 -2.26557850838 
17.53125 -9.39174079895 -2.24358248711 
17.359375 -9.45465946198 -2.22158670425 
17.1875 -9.51450920105 -2.19959068298 
17.015625 -9.5712890625 -2.17759490013 
16.859375 -9.63392829895 -2.15759849548 
16.6875 -9.68470954895 -2.13560271263 
16.53125 -9.74162960052 -2.11560630798 
16.375 -9.79575920105 -2.09561014175 
16.234375 -9.85658454895 -2.07761335373 
16.078125 -9.9052734375 -2.0576171875 
15.9375 -9.9609375 -2.03962063789 
15.796875 -10.014090538 -2.02162384987 
15.65625 -10.0647325516 -2.00362730026 
15.515625 -10.112862587 -1.98563063145 
15.375 -10.1584825516 -1.96763396263 
15.2421875 -10.2068223953 -1.95063710213 
15.1171875 -10.2580919266 -1.93464004993 
14.984375 -10.3017578125 -1.91764318943 
14.859375 -10.348493576 -1.90164625645 
14.734375 -10.392996788 -1.88564920425 
14.609375 -10.4352674484 -1.86965215206 
14.484375 -10.4753065109 -1.85365509987 
14.3671875 -10.5188341141 -1.8386579752 
14.25 -10.5602674484 -1.82366073132 
14.140625 -10.60546875 -1.80966329575 
14.0234375 -10.6427869797 -1.79466605186 
13.9140625 -10.684012413 -1.7806687355 
13.8046875 -10.7232837677 -1.76667129993 
13.6953125 -10.760602951 -1.75267386436 
13.5859375 -10.7959680557 -1.738676548 
13.484375 -10.8356580734 -1.72567892075 
13.3828125 -10.8735351562 -1.7126814127 
13.28125 -10.9095983505 -1.69968378544 
13.1796875 -10.9438476562 -1.68668615818 
13.078125 -10.9762830734 -1.67368865013 
12.984375 -11.0135326385 -1.66169083118 
12.890625 -11.0491075516 -1.64969313145 
12.796875 -11.0830078125 -1.6376953125 
12.703125 -11.115234375 -1.62569749355 
12.609375 -11.1457872391 -1.61369979382 
12.5234375 -11.181640625 -1.60270178318 
12.4296875 -11.2089147568 -1.59070408344 
12.34375 -11.2416296005 -1.57970607281 
12.2578125 -11.2728099823 -1.56870818138 
12.171875 -11.3024549484 -1.55771017075 
12.0859375 -11.3305664062 -1.54671227932 
12.0078125 -11.3645372391 -1.536714077 
11.921875 -11.3896484375 -1.52571618557 
11.84375 -11.420759201 -1.51571798325 
11.765625 -11.4504747391 -1.50571990013 
11.6875 -11.4787950516 -1.49572169781 
11.609375 -11.5057201385 -1.48572361469 
12.7578125 12.7578125 -1.74660527706 
12.9375 12.8219861984 -1.77120530605 
13.125 12.890625 -1.796875 
13.3125 12.955915451 -1.82254469395 
13.5078125 13.025390625 -1.84928381443 
13.7109375 13.0988416672 -1.87709259987 
13.9140625 13.1686658859 -1.90490138531 
14.1328125 13.2495117188 -1.93484938145 
14.3515625 13.3264513016 -1.96479725838 
14.578125 13.406668663 -1.99581468105 
14.8125 13.4899549484 -2.02790188789 
15.0546875 13.5761022568 -2.06105852127 
15.3046875 13.664899826 -2.09528470039 
15.5625 13.7561388016 -2.13058042526 
15.8359375 13.8564453125 -2.16801524162 
16.109375 13.9518690109 -2.20545005798 
16.390625 14.0491075516 -2.24395465851 
16.6875 14.1545763016 -2.28459811211 
17.0 14.2678575516 -2.32738089561 
17.3125 14.3755578995 -2.37016367912 
17.65625 14.5033483505 -2.41722464561 
18.0 14.625 -2.46428561211 
18.359375 14.753068924 -2.51348590851 
18.5 14.7008924484 -2.53273820877 
18.5 14.5357141495 -2.53273820877 
18.5 14.3705358505 -2.53273820877 
18.5 14.2053575516 -2.53273820877 
18.5 14.040178299 -2.53273820877 
18.5 13.875 -2.53273820877 
18.5 13.709821701 -2.53273820877 
18.5 13.5446424484 -2.53273820877 
18.5 13.3794641495 -2.53273820877 
18.5 13.2142858505 -2.53273820877 
18.5 13.0491075516 -2.53273820877 
18.5 12.883928299 -2.53273820877 
18.5 12.71875 -2.53273820877 
18.5 12.553571701 -2.53273820877 
18.5 12.3883924484 -2.53273820877 
18.5 12.2232141495 -2.53273820877 
18.5 12.0580358505 -2.53273820877 
18.5 11.8928575516 -2.53273820877 
18.5 11.727678299 -2.53273820877 
18.5 11.5625 -2.53273820877 
18.5 11.397321701 -2.53273820877 
18.5 11.2321424484 -2.53273820877 
18.5 11.0669641495 -2.53273820877 
18.5 10.9017858505 -2.53273820877 
18.5 10.7366075516 -2.53273820877 
18.5 10.571428299 -2.53273820877 
18.5 10.40625 -2.53273820877 
18.5 10.241071701 -2.53273820877 
18.5 10.0758924484 -2.53273820877 
18.5 9.91071414948 -2.53273820877 
18.5 9.74553585052 -2.53273820877 
18.5 9.58035755157 -2.53273820877 
18.5 9.41517829895 -2.53273820877 
18.5 9.25 -2.53273820877 
18.5 9.08482170105 -2.53273820877 
18.5 8.91964244843 -2.53273820877 
18.5 8.75446414948 -2.53273820877 
18.5 8.58928585052 -2.53273820877 
18.5 8.42410755157 -2.53273820877 
18.5 8.25892829895 -2.53273820877 
18.5 8.09375 -2.53273820877 
18.5 7.92857122421 -2.53273820877 
18.5 7.76339292526 -2.53273820877 
18.5 7.59821414948 -2.53273820877 
18.5 7.43303585052 -2.53273820877 
18.5 7.26785707474 -2.53273820877 
18.5 7.10267877579 -2.53273820877 
18.5 6.9375 -2.53273820877 
18.5 6.77232122421 -2.53273820877 
18.5 6.60714292526 -2.53273820877 
16.796875 5.84891176224 -2.29957222939 
16.703125 5.66713190079 -2.28673744202 
16.6875 5.51283502579 -2.28459811211 
16.71875 5.37388372421 -2.28887653351 
16.8125 5.25390625 -2.30171132088 
16.953125 5.146484375 -2.32096362114 
15.7109375 4.62911558151 -2.15090227127 
13.71875 3.91964292526 -1.87816214561 
13.15625 3.64146208763 -1.80115330219 
13.1875 3.53236603737 -1.80543160439 
12.46875 3.228515625 -1.70703125 
11.4140625 2.853515625 -1.56263947487 
8.6875 2.09430813789 -1.18936014175 
8.453125 1.96233260632 -1.15727305412 
8.0 1.78571426868 -1.09523808956 
7.49609375 1.60630583763 -1.02625095844 
6.71484375 1.37894117832 -0.919294059277 
6.7265625 1.3212890625 -0.9208984375 
6.74609375 1.26489257812 -0.923572361469 
6.78125 1.2109375 -0.928385436535 
6.49609375 1.10201585293 -0.889346182346 
6.5078125 1.0458984375 -0.890950500965 
6.52734375 0.990757524967 -0.893624424934 
6.546875 0.935267865658 -0.896298348904 
6.56640625 0.879429399967 -0.898972272873 
6.5859375 0.8232421875 -0.901646196842 
6.60546875 0.766706168652 -0.904320120811 
6.625 0.709821403027 -0.906994044781 
6.6484375 0.652971565723 -0.910202741623 
6.66796875 0.595354378223 -0.912876665592 
6.6875 0.537388384342 -0.915550589561 
6.70703125 0.479073673487 -0.918224513531 
6.73046875 0.420654296875 -0.921433210373 
6.75 0.361607134342 -0.924107134342 
6.76953125 0.302211225033 -0.926781058311 
6.79296875 0.242606028914 -0.929989755154 
6.8125 0.182477682829 -0.932663679123 
6.8359375 0.1220703125 -0.935872375965 
6.85546875 0.0612095408142 -0.938546299934 
6.87890625 0.0 -0.941754996777 
6.8984375 -0.0615931935608 -0.944428920746 
6.921875 -0.123604908586 -0.947637677193 
6.9453125 -0.18603515625 -0.950846374035 
6.96875 -0.248883932829 -0.954055070877 
6.98828125 -0.311976850033 -0.956728994846 
7.01171875 -0.375627785921 -0.959937691689 
7.03515625 -0.439697265625 -0.963146388531 
7.05859375 -0.504185259342 -0.966355085373 
7.08203125 -0.569091796875 -0.969563782215 
7.10546875 -0.634416878223 -0.972772479057 
7.125 -0.699776768684 -0.975446403027 
7.1484375 -0.765904009342 -0.978655159473 
7.17578125 -0.832903206348 -0.982398629189 
7.19921875 -0.89990234375 -0.985607326031 
7.22265625 -0.967320024967 -0.988816022873 
7.24609375 -1.03515625 -0.992024719715 
7.26953125 -1.10341095924 -0.995233416557 
7.29296875 -1.1720842123 -0.998442173004 
7.3203125 -1.24183869362 -1.00218558311 
7.34375 -1.31138396263 -1.00539433956 
7.3671875 -1.38134765625 -1.00860309601 
7.39453125 -1.45249724388 -1.01234650612 
7.41796875 -1.52333283424 -1.01555526257 
7.4453125 -1.59542405605 -1.01929879189 
7.46875 -1.66713166237 -1.02250742912 
7.49609375 -1.74016463757 -1.02625095844 
7.5234375 -1.8136857748 -1.02999436855 
7.546875 -1.88671875 -1.033203125 
7.57421875 -1.96118164062 -1.03694665432 
7.6015625 -2.0361328125 -1.04069006443 
7.62890625 -2.11157226562 -1.04443359375 
7.65625 -2.1875 -1.04817712307 
7.68359375 -2.26391601562 -1.05192053318 
7.70703125 -2.33963441849 -1.05512928963 
7.73828125 -2.41821289062 -1.05940759182 
7.765625 -2.49609375 -1.06315100193 
7.79296875 -2.57446289062 -1.06689453125 
7.8203125 -2.6533203125 -1.07063806057 
7.84765625 -2.73266601562 -1.07438147068 
7.875 -2.8125 -1.078125 
7.90625 -2.89425230026 -1.08240330219 
7.93359375 -2.97509765625 -1.0861467123 
7.96484375 -3.05793118477 -1.0904250145 
7.9921875 -3.13978791237 -1.09416854382 
8.0234375 -3.22370266914 -1.09844684601 
8.046875 -3.30496644974 -1.10165548325 
8.078125 -3.38992738724 -1.10593378544 
8.109375 -3.47544646263 -1.11021208763 
8.140625 -3.5615234375 -1.11449027061 
18.5 -8.25892829895 -2.53273820877 
18.5 -8.42410755157 -2.53273820877 
18.5 -8.58928585052 -2.53273820877 
18.5 -8.75446414948 -2.53273820877 
18.5 -8.91964244843 -2.53273820877 
18.453125 -9.06180286407 -2.52632069588 
18.265625 -9.1328125 -2.50065112114 
18.078125 -9.20047473907 -2.47498130798 
17.890625 -9.26478767395 -2.44931173325 
17.703125 -9.32575321198 -2.42364215851 
17.53125 -9.39174079895 -2.40011167526 
17.359375 -9.45465946198 -2.37658119202 
17.1875 -9.51450920105 -2.35305070877 
17.015625 -9.5712890625 -2.32951998711 
16.859375 -9.63392829895 -2.30812883377 
16.6875 -9.68470954895 -2.28459811211 
16.53125 -9.74162960052 -2.26320695877 
16.375 -9.79575920105 -2.24181556702 
16.234375 -9.85658454895 -2.22256326675 
16.078125 -9.9052734375 -2.201171875 
15.9375 -9.9609375 -2.18191957474 
15.796875 -10.014090538 -2.16266751289 
15.65625 -10.0647325516 -2.14341521263 
15.515625 -10.112862587 -2.12416291237 
15.375 -10.1584825516 -2.10491061211 
15.2421875 -10.2068223953 -2.08672809601 
15.1171875 -10.2580919266 -2.06961488724 
14.984375 -10.3017578125 -2.05143237114 
14.859375 -10.348493576 -2.03431916237 
14.734375 -10.392996788 -2.01720619202 
14.609375 -10.4352674484 -2.00009298325 
14.484375 -10.4753065109 -1.98297989368 
14.3671875 -10.5188341141 -1.96693634987 
14.25 -10.5602674484 -1.95089280605 
14.140625 -10.60546875 -1.93591892719 
14.0234375 -10.6427869797 -1.91987538338 
13.9140625 -10.684012413 -1.90490138531 
13.8046875 -10.7232837677 -1.88992750645 
13.6953125 -10.760602951 -1.87495350838 
13.5859375 -10.7959680557 -1.85997951031 
13.484375 -10.8356580734 -1.84607517719 
13.3828125 -10.8735351562 -1.83217072487 
13.28125 -10.9095983505 -1.81826639175 
13.1796875 -10.9438476562 -1.80436193943 
13.078125 -10.9762830734 -1.79045760632 
12.984375 -11.0135326385 -1.77762281895 
12.890625 -11.0491075516 -1.76478791237 
12.796875 -11.0830078125 -1.751953125 
12.703125 -11.115234375 -1.73911833763 
12.609375 -11.1457872391 -1.72628343105 
12.5234375 -11.181640625 -1.71451818943 
12.4296875 -11.2089147568 -1.70168340206 
12.34375 -11.2416296005 -1.68991816044 
12.2578125 -11.2728099823 -1.67815291882 
12.171875 -11.3024549484 -1.66638767719 
12.0859375 -11.3305664062 -1.65462243557 
12.0078125 -11.3645372391 -1.64392673969 
11.921875 -11.3896484375 -1.63216149807 
11.84375 -11.420759201 -1.62146580219 
11.765625 -11.4504747391 -1.61077010632 
11.6875 -11.4787950516 -1.60007441044 
11.609375 -11.5057201385 -1.58937871456 
12.7578125 12.7578125 -1.86051428318 
12.9375 12.8219861984 -1.88671875 
13.125 12.890625 -1.9140625 
13.3125 12.955915451 -1.94140625 
13.5078125 13.025390625 -1.96988928318 
13.7109375 13.0988416672 -1.99951171875 
13.9140625 13.1686658859 -2.02913403511 
14.1328125 13.2495117188 -2.06103515625 
14.3515625 13.3264513016 -2.09293627739 
14.578125 13.406668663 -2.1259765625 
14.8125 13.4899549484 -2.16015625 
15.0546875 13.5761022568 -2.19547533989 
15.3046875 13.664899826 -2.23193359375 
15.5625 13.7561388016 -2.26953125 
15.8359375 13.8564453125 -2.30940747261 
16.109375 13.9518690109 -2.34928393364 
16.390625 14.0491075516 -2.39029955864 
16.6875 14.1545763016 -2.43359375 
17.0 14.2678575516 -2.47916674614 
17.3125 14.3755578995 -2.52473950386 
17.375 14.272321701 -2.53385424614 
17.375 14.1171875 -2.53385424614 
17.375 13.962053299 -2.53385424614 
17.375 13.8069200516 -2.53385424614 
17.375 13.6517858505 -2.53385424614 
17.375 13.4966516495 -2.53385424614 
17.375 13.3415174484 -2.53385424614 
17.375 13.186384201 -2.53385424614 
17.375 13.03125 -2.53385424614 
17.375 12.876115799 -2.53385424614 
17.375 12.7209825516 -2.53385424614 
17.375 12.5658483505 -2.53385424614 
17.375 12.4107141495 -2.53385424614 
17.375 12.2555799484 -2.53385424614 
17.375 12.100446701 -2.53385424614 
17.375 11.9453125 -2.53385424614 
17.375 11.790178299 -2.53385424614 
17.375 11.6350450516 -2.53385424614 
17.375 11.4799108505 -2.53385424614 
17.375 11.3247766495 -2.53385424614 
17.375 11.1696424484 -2.53385424614 
17.375 11.014509201 -2.53385424614 
17.375 10.859375 -2.53385424614 
17.375 10.704240799 -2.53385424614 
17.375 10.5491075516 -2.53385424614 
17.375 10.3939733505 -2.53385424614 
17.375 10.2388391495 -2.53385424614 
17.375 10.0837049484 -2.53385424614 
17.375 9.92857170105 -2.53385424614 
17.375 9.7734375 -2.53385424614 
17.375 9.61830329895 -2.53385424614 
17.375 9.46317005157 -2.53385424614 
17.375 9.30803585052 -2.53385424614 
17.375 9.15290164948 -2.53385424614 
17.375 8.99776744843 -2.53385424614 
17.375 8.84263420105 -2.53385424614 
17.375 8.6875 -2.53385424614 
17.375 8.53236579895 -2.53385424614 
17.375 8.37723255157 -2.53385424614 
17.375 8.22209835052 -2.53385424614 
17.375 8.06696414948 -2.53385424614 
17.375 7.91183042526 -2.53385424614 
17.375 7.75669622421 -2.53385424614 
17.375 7.6015625 -2.53385424614 
17.375 7.44642877579 -2.53385424614 
17.375 7.29129457474 -2.53385424614 
17.375 7.13616085052 -2.53385424614 
17.375 6.98102664948 -2.53385424614 
17.375 6.82589292526 -2.53385424614 
17.375 6.67075872421 -2.53385424614 
17.375 6.515625 -2.53385424614 
17.375 6.36049127579 -2.53385424614 
17.375 6.20535707474 -2.53385424614 
17.375 6.05022335052 -2.53385424614 
17.375 5.89508914948 -2.53385424614 
17.375 5.73995542526 -2.53385424614 
17.375 5.58482122421 -2.53385424614 
17.375 5.4296875 -2.53385424614 
17.375 5.27455377579 -2.53385424614 
17.375 5.11941957474 -2.53385424614 
13.71875 3.91964292526 -2.00065112114 
13.15625 3.64146208763 -1.91861975193 
13.1875 3.53236603737 -1.92317712307 
12.46875 3.228515625 -1.818359375 
11.4140625 2.853515625 -1.66455078125 
8.6875 2.09430813789 -1.26692712307 
8.421875 1.955078125 -1.22819006443 
8.0 1.78571426868 -1.16666662693 
7.49609375 1.60630583763 -1.09318029881 
6.71484375 1.37894117832 -0.979248046875 
6.7265625 1.3212890625 -0.98095703125 
6.74609375 1.26489257812 -0.98380535841 
6.78125 1.2109375 -0.988932311535 
6.49609375 1.10201585293 -0.94734698534 
6.5078125 1.0458984375 -0.949055969715 
6.52734375 0.990757524967 -0.951904296875 
6.546875 0.935267865658 -0.954752624035 
6.56640625 0.879429399967 -0.95760089159 
6.5859375 0.8232421875 -0.96044921875 
6.60546875 0.766706168652 -0.96329754591 
6.625 0.709821403027 -0.966145813465 
6.6484375 0.652971565723 -0.969563782215 
6.66796875 0.595354378223 -0.972412109375 
6.6875 0.537388384342 -0.975260436535 
6.70703125 0.479073673487 -0.97810870409 
6.73046875 0.420654296875 -0.98152667284 
6.75 0.361607134342 -0.984375 
6.76953125 0.302211225033 -0.98722332716 
6.79296875 0.242606028914 -0.99064129591 
6.8125 0.182477682829 -0.993489563465 
6.8359375 0.1220703125 -0.996907532215 
6.85546875 0.0612095408142 -0.999755859375 
6.87890625 0.0 -1.00317382812 
6.8984375 -0.0615931935608 -1.00602209568 
6.921875 -0.123604908586 -1.00944006443 
6.9453125 -0.18603515625 -1.01285803318 
6.96875 -0.248883932829 -1.01627600193 
6.98828125 -0.311976850033 -1.01912438869 
7.01171875 -0.375627785921 -1.02254235744 
7.03515625 -0.439697265625 -1.02596032619 
7.05859375 -0.504185259342 -1.02937829494 
7.08203125 -0.569091796875 -1.03279626369 
7.10546875 -0.634416878223 -1.03621423244 
7.125 -0.699776768684 -1.0390625 
7.1484375 -0.765904009342 -1.04248046875 
7.17578125 -0.832903206348 -1.04646813869 
7.19921875 -0.89990234375 -1.04988610744 
7.22265625 -0.967320024967 -1.05330407619 
7.24609375 -1.03515625 -1.05672204494 
7.26953125 -1.10341095924 -1.06014001369 
7.29296875 -1.1720842123 -1.06355798244 
7.3203125 -1.24183869362 -1.06754553318 
7.34375 -1.31138396263 -1.07096350193 
7.3671875 -1.38134765625 -1.07438147068 
7.39453125 -1.45249724388 -1.07836914062 
7.41796875 -1.52333283424 -1.08178710938 
7.4453125 -1.59542405605 -1.08577477932 
7.46875 -1.66713166237 -1.08919274807 
7.49609375 -1.74016463757 -1.09318029881 
7.5234375 -1.8136857748 -1.09716796875 
7.546875 -1.88671875 -1.1005859375 
7.57421875 -1.96118164062 -1.10457360744 
7.6015625 -2.0361328125 -1.10856115818 
7.62890625 -2.11157226562 -1.11254882812 
7.65625 -2.1875 -1.11653649807 
7.68359375 -2.26391601562 -1.12052404881 
7.70703125 -2.33963441849 -1.12394201756 
7.73828125 -2.41821289062 -1.12849938869 
7.765625 -2.49609375 -1.13248693943 
7.79296875 -2.57446289062 -1.13647460938 
7.8203125 -2.6533203125 -1.14046227932 
7.84765625 -2.73266601562 -1.14444983006 
