6.609375 -0.590122759342 -1.49497771263 
6.6171875 -0.64990234375 -1.49674475193 
6.625 -0.709821403027 -1.49851191044 
6.6328125 -0.769879996777 -1.50027906895 
6.640625 -0.830078125 -1.50204610825 
6.6484375 -0.890415728092 -1.50381326675 
6.65625 -0.950892865658 -1.50558030605 
6.66796875 -1.01210236549 -1.50823104382 
6.67578125 -1.07289338112 -1.50999808311 
6.68359375 -1.13382399082 -1.51176524162 
6.69140625 -1.19489395618 -1.51353240013 
6.69921875 -1.25610351562 -1.51529943943 
6.70703125 -1.31745254993 -1.51706659794 
6.71484375 -1.37894117832 -1.51883375645 
6.7265625 -1.44140625 -1.521484375 
6.734375 -1.50320875645 -1.52325153351 
6.7421875 -1.56515061855 -1.52501857281 
6.75 -1.62723219395 -1.52678573132 
6.7578125 -1.689453125 -1.52855277061 
6.765625 -1.75181365013 -1.53031992912 
6.77734375 -1.81535995007 -1.53297066689 
6.78515625 -1.87803435326 -1.53473770618 
6.79296875 -1.94084823132 -1.53650486469 
6.80078125 -2.00380158424 -1.53827190399 
6.80859375 -2.06689453125 -1.5400390625 
6.8203125 -2.13134765625 -1.54268968105 
6.828125 -2.19475436211 -1.54445683956 
6.8359375 -2.25830078125 -1.54622399807 
6.84375 -2.32198667526 -1.54799103737 
6.85546875 -2.38717222214 -1.55064177513 
6.86328125 -2.451171875 -1.55240881443 
6.87109375 -2.51531100273 -1.55417597294 
6.87890625 -2.57958984375 -1.55594313145 
6.890625 -2.6455078125 -1.55859375 
6.8984375 -2.71010041237 -1.56036090851 
6.90625 -2.77483248711 -1.56212794781 
6.9140625 -2.83970427513 -1.56389510632 
6.92578125 -2.90635466576 -1.56654572487 
6.93359375 -2.97154021263 -1.56831288338 
6.94140625 -3.03686523438 -1.57008004189 
6.953125 -3.10407376289 -1.57273066044 
6.9609375 -3.16971254349 -1.57449781895 
6.96875 -3.23549103737 -1.57626485825 
6.9765625 -3.30140900612 -1.57803201675 
6.98828125 -3.36934995651 -1.58068263531 
6.99609375 -3.43558168411 -1.58244979382 
7.00390625 -3.501953125 -1.58421683311 
7.015625 -3.57045197487 -1.58686757088 
7.0234375 -3.63713717461 -1.58863472939 
7.03515625 -3.70601987839 -1.59128534794 
7.04296875 -3.77301907539 -1.59305250645 
7.05078125 -3.84015774727 -1.59481954575 
7.0625 -3.90959811211 -1.59747028351 
7.0703125 -3.97705078125 -1.59923732281 
7.078125 -4.04464292526 -1.60100448132 
7.08984375 -4.11464166641 -1.60365509987 
7.09765625 -4.18254756927 -1.60542225838 
7.109375 -4.2529296875 -1.60807287693 
7.1171875 -4.32114934921 -1.60984003544 
7.125 -4.38950872421 -1.61160719395 
7.13671875 -4.46044921875 -1.6142578125 
7.14453125 -4.5291223526 -1.61602497101 
7.15625 -4.60044622421 -1.61867558956 
7.1640625 -4.66943359375 -1.62044274807 
7.17578125 -4.74114131927 -1.62309336662 
7.18359375 -4.81044244766 -1.62486052513 
7.1953125 -4.88253355026 -1.62751114368 
7.203125 -4.9521484375 -1.62927830219 
7.21484375 -5.02462339401 -1.63192892075 
7.22265625 -5.0945520401 -1.63369607925 
7.234375 -5.16741085052 -1.63634669781 
7.2421875 -5.23765325546 -1.63811385632 
10.875 -7.96205377579 -2.45982146263 
10.875 -8.05915164948 -2.45982146263 
10.875 -8.15625 -2.45982146263 
10.875 -8.25334835052 -2.45982146263 
10.875 -8.35044670105 -2.45982146263 
10.875 -8.44754505157 -2.45982146263 
10.875 -8.54464244843 -2.45982146263 
10.875 -8.64174079895 -2.45982146263 
10.875 -8.73883914948 -2.45982146263 
10.875 -8.8359375 -2.45982146263 
10.875 -8.93303585052 -2.45982146263 
10.875 -9.03013420105 -2.45982146263 
10.875 -9.12723255157 -2.45982146263 
10.875 -9.22432994843 -2.45982146263 
10.875 -9.32142829895 -2.45982146263 
10.875 -9.41852664948 -2.45982146263 
10.875 -9.515625 -2.45982146263 
10.875 -9.61272335052 -2.45982146263 
10.875 -9.70982170105 -2.45982146263 
10.875 -9.80692005157 -2.45982146263 
10.875 -9.90401744843 -2.45982146263 
10.875 -10.001115799 -2.45982146263 
10.875 -10.0982141495 -2.45982146263 
10.875 -10.1953125 -2.45982146263 
10.875 -10.2924108505 -2.45982146263 
10.875 -10.389509201 -2.45982146263 
10.875 -10.4866075516 -2.45982146263 
10.875 -10.5837049484 -2.45982146263 
10.875 -10.680803299 -2.45982146263 
10.875 -10.7779016495 -2.45982146263 
8.9453125 8.9453125 -2.10321331024 
9.0390625 8.9583568573 -2.12525582314 
9.1328125 8.9697265625 -2.14729809761 
9.2265625 8.97942256927 -2.1693406105 
9.328125 8.99497795105 -2.19321990013 
9.4296875 9.00871944427 -2.21709918976 
9.53125 9.02064704895 -2.24097847939 
9.640625 9.0380859375 -2.26669454575 
9.75 9.05357170105 -2.29241061211 
9.859375 9.06710338593 -2.31812691689 
9.9765625 9.08579826355 -2.34567975998 
10.09375 9.10239982605 -2.37323284149 
10.2109375 9.11690807343 -2.400785923 
10.3359375 9.13623046875 -2.43017578125 
10.4609375 9.1533203125 -2.4595656395 
10.5859375 9.16817760468 -2.48895549774 
10.71875 9.1875 -2.52018237114 
10.8046875 9.1646900177 -2.54038786888 
10.8046875 9.06822013855 -2.54038786888 
10.8046875 8.97174930573 -2.54038786888 
10.8046875 8.87527942657 -2.54038786888 
10.8046875 8.77880859375 -2.54038786888 
10.8046875 8.68233776093 -2.54038786888 
10.8046875 8.58586788177 -2.54038786888 
10.8046875 8.48939704895 -2.54038786888 
10.8046875 8.3929271698 -2.54038786888 
10.8046875 8.29645633698 -2.54038786888 
10.8046875 8.19998645782 -2.54038786888 
10.8046875 8.103515625 -2.54038786888 
10.8046875 8.00704479218 -2.54038786888 
10.8046875 7.91057491302 -2.54038786888 
10.8046875 7.81410455704 -2.54038786888 
10.8046875 7.71763372421 -2.54038786888 
10.8046875 7.62116336823 -2.54038786888 
10.8046875 7.52469301224 -2.54038786888 
10.8046875 7.42822265625 -2.54038786888 
10.8046875 7.33175230026 -2.54038786888 
10.8046875 7.23528194427 -2.54038786888 
10.8046875 7.13881158829 -2.54038786888 
10.8046875 7.04234075546 -2.54038786888 
10.8046875 6.94587039948 -2.54038786888 
10.8046875 6.84940004349 -2.54038786888 
10.8046875 6.7529296875 -2.54038786888 
10.8046875 6.65645933151 -2.54038786888 
10.8046875 6.55998897552 -2.54038786888 
10.8046875 6.46351861954 -2.54038786888 
10.8046875 6.36704778671 -2.54038786888 
10.8046875 6.27057743073 -2.54038786888 
10.8046875 6.17410707474 -2.54038786888 
10.8046875 6.07763671875 -2.54038786888 
10.8046875 5.98116636276 -2.54038786888 
10.8046875 5.88469600677 -2.54038786888 
10.8046875 5.78822565079 -2.54038786888 
10.8046875 5.69175481796 -2.54038786888 
10.8046875 5.59528446198 -2.54038786888 
10.8046875 5.49881410599 -2.54038786888 
10.8046875 5.40234375 -2.54038786888 
10.8046875 5.30587339401 -2.54038786888 
10.8046875 5.20940303802 -2.54038786888 
10.8046875 5.11293268204 -2.54038786888 
10.8046875 5.01646184921 -2.54038786888 
10.8046875 4.91999149323 -2.54038786888 
10.8046875 4.82352113724 -2.54038786888 
10.8046875 4.72705078125 -2.54038786888 
10.8046875 4.63058042526 -2.54038786888 
10.8046875 4.53411006927 -2.54038786888 
10.8046875 4.43763971329 -2.54038786888 
10.8046875 4.34116888046 -2.54038786888 
10.8046875 4.24469852448 -2.54038786888 
10.8046875 4.14822816849 -2.54038786888 
10.8046875 4.0517578125 -2.54038786888 
10.8046875 3.95528745651 -2.54038786888 
10.8046875 3.85881686211 -2.54038786888 
10.8046875 3.76234650612 -2.54038786888 
10.8046875 3.66587615013 -2.54038786888 
10.8046875 3.56940579414 -2.54038786888 
10.8046875 3.47293519974 -2.54038786888 
10.8046875 3.37646484375 -2.54038786888 
10.8046875 3.27999448776 -2.54038786888 
10.8046875 3.18352389336 -2.54038786888 
10.8046875 3.08705353737 -2.54038786888 
10.8046875 2.99058318138 -2.54038786888 
10.8046875 2.89411282539 -2.54038786888 
10.8046875 2.79764223099 -2.54038786888 
10.8046875 2.701171875 -2.54038786888 
10.8046875 2.60470151901 -2.54038786888 
10.8046875 2.50823092461 -2.54038786888 
10.8046875 2.41176056862 -2.54038786888 
10.8046875 2.31529021263 -2.54038786888 
10.8046875 2.21881985664 -2.54038786888 
10.8046875 2.12234926224 -2.54038786888 
10.8046875 2.02587890625 -2.54038786888 
10.8046875 1.92940843105 -2.54038786888 
10.8046875 1.83293807507 -2.54038786888 
10.8046875 1.73646759987 -2.54038786888 
10.8046875 1.63999724388 -2.54038786888 
10.8046875 1.54352676868 -2.54038786888 
10.8046875 1.4470564127 -2.54038786888 
10.8046875 1.3505859375 -2.54038786888 
10.8046875 1.2541154623 -2.54038786888 
10.8046875 1.15764510632 -2.54038786888 
10.8046875 1.06117463112 -2.54038786888 
10.8046875 0.964704215527 -2.54038786888 
10.8046875 0.868233799934 -2.54038786888 
10.8046875 0.771763384342 -2.54038786888 
10.8046875 0.67529296875 -2.54038786888 
10.8046875 0.578822553158 -2.54038786888 
10.8046875 0.482352107763 -2.54038786888 
10.8046875 0.385881692171 -2.54038786888 
9.203125 0.246512278914 -2.16383004189 
8.515625 0.152064725757 -2.00218558311 
7.9296875 0.07080078125 -1.86442053318 
7.4140625 0.0 -1.74318730831 
7.01171875 -0.0626046285033 -1.64858865738 
6.85546875 -0.122419081628 -1.61185133457 
6.85546875 -0.183628633618 -1.61185133457 
6.86328125 -0.2451171875 -1.61368811131 
6.8828125 -0.307268410921 -1.61828029156 
6.578125 -0.352399557829 -1.54664254189 
6.5859375 -0.41162109375 -1.54847931862 
6.59375 -0.470982134342 -1.55031621456 
6.6015625 -0.530482709408 -1.5521531105 
6.609375 -0.590122759342 -1.55399000645 
6.6171875 -0.64990234375 -1.55582678318 
6.625 -0.709821403027 -1.55766367912 
6.6328125 -0.769879996777 -1.55950057507 
6.640625 -0.830078125 -1.56133747101 
6.6484375 -0.890415728092 -1.56317424774 
6.65625 -0.950892865658 -1.56501114368 
6.66796875 -1.01210236549 -1.56776642799 
6.67578125 -1.07289338112 -1.56960332394 
6.68359375 -1.13382399082 -1.57144021988 
6.69140625 -1.19489395618 -1.57327711582 
6.69921875 -1.25610351562 -1.57511389256 
6.70703125 -1.31745254993 -1.5769507885 
6.71484375 -1.37894117832 -1.57878768444 
6.7265625 -1.44140625 -1.58154296875 
6.734375 -1.50320875645 -1.58337986469 
6.7421875 -1.56515061855 -1.58521676064 
6.75 -1.62723219395 -1.58705353737 
6.7578125 -1.689453125 -1.58889043331 
6.765625 -1.75181365013 -1.59072732925 
6.77734375 -1.81535995007 -1.59348261356 
6.78515625 -1.87803435326 -1.59531950951 
6.79296875 -1.94084823132 -1.59715628624 
6.80078125 -2.00380158424 -1.59899318218 
6.80859375 -2.06689453125 -1.60083007812 
6.8203125 -2.13134765625 -1.60358536243 
6.828125 -2.19475436211 -1.60542225838 
6.8359375 -2.25830078125 -1.60725915432 
6.84375 -2.32198667526 -1.60909593105 
6.85546875 -2.38717222214 -1.61185133457 
6.86328125 -2.451171875 -1.61368811131 
6.87109375 -2.51531100273 -1.61552500725 
6.87890625 -2.57958984375 -1.61736190319 
6.890625 -2.6455078125 -1.6201171875 
6.8984375 -2.71010041237 -1.62195408344 
6.90625 -2.77483248711 -1.62379097939 
6.9140625 -2.83970427513 -1.62562775612 
6.92578125 -2.90635466576 -1.62838304043 
6.93359375 -2.97154021263 -1.63021993637 
6.94140625 -3.03686523438 -1.63205683231 
6.953125 -3.10407376289 -1.63481211662 
6.9609375 -3.16971254349 -1.63664901257 
6.96875 -3.23549103737 -1.63848590851 
6.9765625 -3.30140900612 -1.64032268524 
6.98828125 -3.36934995651 -1.64307808876 
6.99609375 -3.43558168411 -1.64491486549 
7.00390625 -3.501953125 -1.64675176144 
7.015625 -3.57045197487 -1.64950704575 
7.0234375 -3.63713717461 -1.65134394169 
7.03515625 -3.70601987839 -1.654099226 
7.04296875 -3.77301907539 -1.65593612194 
7.05078125 -3.84015774727 -1.65777301788 
7.0625 -3.90959811211 -1.66052830219 
7.0703125 -3.97705078125 -1.66236519814 
7.078125 -4.04464292526 -1.66420197487 
7.08984375 -4.11464166641 -1.66695725918 
7.09765625 -4.18254756927 -1.66879415512 
7.109375 -4.2529296875 -1.67154943943 
7.1171875 -4.32114934921 -1.67338633537 
7.125 -4.38950872421 -1.67522323132 
7.13671875 -4.46044921875 -1.67797851562 
7.14453125 -4.5291223526 -1.67981541157 
7.15625 -4.60044622421 -1.68257069588 
7.1640625 -4.66943359375 -1.68440759182 
7.17578125 -4.74114131927 -1.68716287613 
7.18359375 -4.81044244766 -1.68899977207 
7.1953125 -4.88253355026 -1.69175505638 
7.203125 -4.9521484375 -1.69359183311 
7.21484375 -5.02462339401 -1.69634723663 
7.22265625 -5.0945520401 -1.69818401337 
7.234375 -5.16741085052 -1.70093941689 
7.2421875 -5.23765325546 -1.70277619362 
10.8046875 -7.91057491302 -2.54038786888 
10.8046875 -8.00704479218 -2.54038786888 
10.8046875 -8.103515625 -2.54038786888 
10.8046875 -8.19998645782 -2.54038786888 
10.4609375 -8.03250598907 -2.4595656395 
10.4609375 -8.12590694427 -2.4595656395 
10.4609375 -8.21930789948 -2.4595656395 
10.4609375 -8.31270885468 -2.4595656395 
10.4609375 -8.40611076355 -2.4595656395 
10.4609375 -8.49951171875 -2.4595656395 
10.4609375 -8.59291267395 -2.4595656395 
10.4609375 -8.68631458282 -2.4595656395 
10.4609375 -8.77971553802 -2.4595656395 
10.4609375 -8.87311649323 -2.4595656395 
10.4609375 -8.96651744843 -2.4595656395 
10.4609375 -9.0599193573 -2.4595656395 
10.4609375 -9.1533203125 -2.4595656395 
10.4609375 -9.2467212677 -2.4595656395 
10.4609375 -9.34012317657 -2.4595656395 
10.4609375 -9.43352413177 -2.4595656395 
10.4609375 -9.52692508698 -2.4595656395 
10.4609375 -9.62032604218 -2.4595656395 
10.4609375 -9.71372795105 -2.4595656395 
10.4609375 -9.80712890625 -2.4595656395 
10.4609375 -9.90052986145 -2.4595656395 
10.4609375 -9.99393177032 -2.4595656395 
10.4609375 -10.0873327255 -2.4595656395 
10.4609375 -10.1807336807 -2.4595656395 
10.4609375 -10.2741346359 -2.4595656395 
10.4609375 -10.3675365448 -2.4595656395 
8.9453125 8.9453125 -2.18308210373 
9.0390625 8.9583568573 -2.20596170425 
9.1328125 8.9697265625 -2.22884106636 
9.2265625 8.97942256927 -2.25172066689 
9.328125 8.99497795105 -2.27650666237 
9.4296875 9.00871944427 -2.30129289627 
9.53125 9.02064704895 -2.32607889175 
9.640625 9.0380859375 -2.35277152061 
9.75 9.05357170105 -2.37946438789 
9.859375 9.06710338593 -2.40615701675 
9.9765625 9.08579826355 -2.43475627899 
10.09375 9.10239982605 -2.46335554123 
10.2109375 9.11690807343 -2.49195504189 
10.3359375 9.13623046875 -2.5224609375 
10.40625 9.10546875 -2.53962063789 
10.40625 9.01255607605 -2.53962063789 
10.40625 8.91964244843 -2.53962063789 
10.40625 8.82672977448 -2.53962063789 
10.40625 8.73381710052 -2.53962063789 
10.40625 8.64090442657 -2.53962063789 
10.40625 8.54799079895 -2.53962063789 
10.40625 8.455078125 -2.53962063789 
10.40625 8.36216545105 -2.53962063789 
10.40625 8.26925182343 -2.53962063789 
10.40625 8.17633914948 -2.53962063789 
10.40625 8.08342647552 -2.53962063789 
10.40625 7.99051332474 -2.53962063789 
10.40625 7.89760065079 -2.53962063789 
10.40625 7.8046875 -2.53962063789 
10.40625 7.71177434921 -2.53962063789 
10.40625 7.61886167526 -2.53962063789 
10.40625 7.52594852448 -2.53962063789 
10.40625 7.43303585052 -2.53962063789 
10.40625 7.34012269974 -2.53962063789 
10.40625 7.24721002579 -2.53962063789 
10.40625 7.154296875 -2.53962063789 
10.40625 7.06138372421 -2.53962063789 
10.40625 6.96847105026 -2.53962063789 
10.40625 6.87555789948 -2.53962063789 
10.40625 6.78264522552 -2.53962063789 
10.40625 6.68973207474 -2.53962063789 
10.40625 6.59681940079 -2.53962063789 
10.40625 6.50390625 -2.53962063789 
10.40625 6.41099309921 -2.53962063789 
10.40625 6.31808042526 -2.53962063789 
10.40625 6.22516727448 -2.53962063789 
10.40625 6.13225460052 -2.53962063789 
10.40625 6.03934144974 -2.53962063789 
10.40625 5.94642877579 -2.53962063789 
10.40625 5.853515625 -2.53962063789 
10.40625 5.76060247421 -2.53962063789 
10.40625 5.66768980026 -2.53962063789 
10.40625 5.57477664948 -2.53962063789 
10.40625 5.48186397552 -2.53962063789 
10.40625 5.38895082474 -2.53962063789 
10.40625 5.29603815079 -2.53962063789 
10.40625 5.203125 -2.53962063789 
10.40625 5.11021184921 -2.53962063789 
10.40625 5.01729917526 -2.53962063789 
10.40625 4.92438602448 -2.53962063789 
10.40625 4.83147335052 -2.53962063789 
10.40625 4.73856019974 -2.53962063789 
10.40625 4.64564752579 -2.53962063789 
10.40625 4.552734375 -2.53962063789 
10.40625 4.45982122421 -2.53962063789 
10.40625 4.36690855026 -2.53962063789 
10.40625 4.27399539948 -2.53962063789 
10.40625 4.18108272552 -2.53962063789 
10.40625 4.08816957474 -2.53962063789 
10.40625 3.99525666237 -2.53962063789 
10.40625 3.90234375 -2.53962063789 
10.40625 3.80943083763 -2.53962063789 
10.40625 3.71651792526 -2.53962063789 
10.40625 3.62360501289 -2.53962063789 
10.40625 3.53069186211 -2.53962063789 
10.40625 3.43777894974 -2.53962063789 
10.40625 3.34486603737 -2.53962063789 
10.40625 3.251953125 -2.53962063789 
10.40625 3.15904021263 -2.53962063789 
10.40625 3.06612730026 -2.53962063789 
10.40625 2.97321438789 -2.53962063789 
10.40625 2.88030123711 -2.53962063789 
10.40625 2.78738832474 -2.53962063789 
10.40625 2.69447541237 -2.53962063789 
10.40625 2.6015625 -2.53962063789 
10.40625 2.50864958763 -2.53962063789 
10.40625 2.41573667526 -2.53962063789 
10.40625 2.32282376289 -2.53962063789 
10.40625 2.22991061211 -2.53962063789 
10.40625 2.13699769974 -2.53962063789 
10.40625 2.04408478737 -2.53962063789 
10.40625 1.951171875 -2.53962063789 
10.40625 1.85825896263 -2.53962063789 
10.40625 1.76534593105 -2.53962063789 
10.40625 1.67243301868 -2.53962063789 
10.40625 1.57952010632 -2.53962063789 
10.40625 1.48660719395 -2.53962063789 
10.40625 1.39369416237 -2.53962063789 
10.40625 1.30078125 -2.53962063789 
10.40625 1.20786833763 -2.53962063789 
10.40625 1.11495530605 -2.53962063789 
10.40625 1.02204239368 -2.53962063789 
10.40625 0.929129481316 -2.53962063789 
10.40625 0.836216509342 -2.53962063789 
10.40625 0.743303596973 -2.53962063789 
10.40625 0.650390625 -2.53962063789 
10.40625 0.557477653027 -2.53962063789 
10.40625 0.464564740658 -2.53962063789 
10.40625 0.371651798487 -2.53962063789 
9.484375 0.254045754671 -2.31463909149 
8.515625 0.152064725757 -2.07821798325 
7.9296875 0.07080078125 -1.93522131443 
7.4140625 0.0 -1.80938434601 
7.01171875 -0.0626046285033 -1.71119332314 
6.85546875 -0.122419081628 -1.6730607748 
6.85546875 -0.183628633618 -1.6730607748 
6.86328125 -0.2451171875 -1.67496740818 
6.8828125 -0.307268410921 -1.67973399162 
6.578125 -0.352399557829 -1.60537576675 
6.5859375 -0.41162109375 -1.60728240013 
6.59375 -0.470982134342 -1.60918903351 
6.6015625 -0.530482709408 -1.61109566689 
6.609375 -0.590122759342 -1.61300218105 
6.6171875 -0.64990234375 -1.61490881443 
6.625 -0.709821403027 -1.61681544781 
6.6328125 -0.769879996777 -1.61872208118 
6.640625 -0.830078125 -1.62062871456 
6.6484375 -0.890415728092 -1.62253534794 
6.65625 -0.950892865658 -1.62444198132 
6.66796875 -1.01210236549 -1.62730193138 
6.67578125 -1.07289338112 -1.62920856476 
6.68359375 -1.13382399082 -1.63111519814 
6.69140625 -1.19489395618 -1.6330217123 
6.69921875 -1.25610351562 -1.63492834568 
6.70703125 -1.31745254993 -1.63683497906 
6.71484375 -1.37894117832 -1.63874161243 
6.7265625 -1.44140625 -1.6416015625 
6.734375 -1.50320875645 -1.64350819588 
6.7421875 -1.56515061855 -1.64541482925 
6.75 -1.62723219395 -1.64732146263 
6.7578125 -1.689453125 -1.64922809601 
6.765625 -1.75181365013 -1.65113472939 
6.77734375 -1.81535995007 -1.65399456024 
6.78515625 -1.87803435326 -1.65590119362 
6.79296875 -1.94084823132 -1.657807827 
6.80078125 -2.00380158424 -1.65971446037 
6.80859375 -2.06689453125 -1.66162109375 
6.8203125 -2.13134765625 -1.66448104382 
6.828125 -2.19475436211 -1.66638767719 
6.8359375 -2.25830078125 -1.66829431057 
6.84375 -2.32198667526 -1.67020094395 
6.85546875 -2.38717222214 -1.6730607748 
6.86328125 -2.451171875 -1.67496740818 
6.87109375 -2.51531100273 -1.67687404156 
6.87890625 -2.57958984375 -1.67878067493 
6.890625 -2.6455078125 -1.681640625 
6.8984375 -2.71010041237 -1.68354725838 
6.90625 -2.77483248711 -1.68545389175 
6.9140625 -2.83970427513 -1.68736052513 
6.92578125 -2.90635466576 -1.6902204752 
6.93359375 -2.97154021263 -1.69212698936 
6.94140625 -3.03686523438 -1.69403362274 
6.953125 -3.10407376289 -1.69689357281 
6.9609375 -3.16971254349 -1.69880020618 
6.96875 -3.23549103737 -1.70070683956 
6.9765625 -3.30140900612 -1.70261347294 
6.98828125 -3.36934995651 -1.705473423 
6.99609375 -3.43558168411 -1.70738005638 
7.00390625 -3.501953125 -1.70928668976 
7.015625 -3.57045197487 -1.71214652061 
7.0234375 -3.63713717461 -1.71405315399 
7.03515625 -3.70601987839 -1.71691310406 
7.04296875 -3.77301907539 -1.71881973743 
7.05078125 -3.84015774727 -1.72072637081 
7.0625 -3.90959811211 -1.72358632088 
7.0703125 -3.97705078125 -1.72549295425 
7.078125 -4.04464292526 -1.72739958763 
7.08984375 -4.11464166641 -1.7302595377 
7.09765625 -4.18254756927 -1.73216605186 
7.109375 -4.2529296875 -1.73502600193 
7.1171875 -4.32114934921 -1.73693263531 
7.125 -4.38950872421 -1.73883926868 
7.13671875 -4.46044921875 -1.74169921875 
7.14453125 -4.5291223526 -1.74360585213 
7.15625 -4.60044622421 -1.74646580219 
7.1640625 -4.66943359375 -1.74837243557 
7.17578125 -4.74114131927 -1.75123238564 
7.18359375 -4.81044244766 -1.7531388998 
7.1953125 -4.88253355026 -1.75599884987 
7.203125 -4.9521484375 -1.75790548325 
7.21484375 -5.02462339401 -1.76076543331 
7.22265625 -5.0945520401 -1.76267206669 
7.234375 -5.16741085052 -1.76553201675 
7.2421875 -5.23765325546 -1.76743865013 
10.40625 -7.61886167526 -2.53962063789 
10.40625 -7.71177434921 -2.53962063789 
10.40625 -7.8046875 -2.53962063789 
10.40625 -7.89760065079 -2.53962063789 
10.40625 -7.99051332474 -2.53962063789 
10.40625 -8.08342647552 -2.53962063789 
10.40625 -8.17633914948 -2.53962063789 
10.40625 -8.26925182343 -2.53962063789 
10.0859375 -8.10477161407 -2.46144914627 
10.0859375 -8.19482421875 -2.46144914627 
10.0859375 -8.28487682343 -2.46144914627 
10.0859375 -8.37493038177 -2.46144914627 
10.0859375 -8.46498298645 -2.46144914627 
10.0859375 -8.5550365448 -2.46144914627 
10.0859375 -8.64508914948 -2.46144914627 
10.0859375 -8.73514270782 -2.46144914627 
10.0859375 -8.8251953125 -2.46144914627 
10.0859375 -8.91524791718 -2.46144914627 
10.0859375 -9.00530147552 -2.46144914627 
10.0859375 -9.0953540802 -2.46144914627 
10.0859375 -9.18540763855 -2.46144914627 
10.0859375 -9.27546024323 -2.46144914627 
10.0859375 -9.36551380157 -2.46144914627 
10.0859375 -9.45556640625 -2.46144914627 
10.0859375 -9.54561901093 -2.46144914627 
10.0859375 -9.63567256927 -2.46144914627 
10.0859375 -9.72572517395 -2.46144914627 
10.0859375 -9.8157787323 -2.46144914627 
10.0859375 -9.90583133698 -2.46144914627 
10.0859375 -9.99588489532 -2.46144914627 
8.9453125 8.9453125 -2.26295113564 
9.0390625 8.9583568573 -2.28666758537 
9.1328125 8.9697265625 -2.31038403511 
9.2265625 8.97942256927 -2.33410072327 
9.328125 8.99497795105 -2.35979342461 
9.4296875 9.00871944427 -2.38548636436 
9.53125 9.02064704895 -2.41117930412 
9.640625 9.0380859375 -2.43884849548 
9.75 9.05357170105 -2.46651792526 
9.859375 9.06710338593 -2.49418711662 
9.9765625 9.08579826355 -2.523832798 
10.046875 9.06012821198 -2.54162025452 
10.046875 8.97042369843 -2.54162025452 
10.046875 8.88072013855 -2.54162025452 
10.046875 8.791015625 -2.54162025452 
10.046875 8.70131111145 -2.54162025452 
10.046875 8.61160755157 -2.54162025452 
10.046875 8.52190303802 -2.54162025452 
10.046875 8.43219852448 -2.54162025452 
10.046875 8.34249401093 -2.54162025452 
10.046875 8.25279045105 -2.54162025452 
10.046875 8.1630859375 -2.54162025452 
10.046875 8.07338142395 -2.54162025452 
10.046875 7.98367738724 -2.54162025452 
10.046875 7.89397335052 -2.54162025452 
10.046875 7.80426883698 -2.54162025452 
10.046875 7.71456480026 -2.54162025452 
10.046875 7.62486028671 -2.54162025452 
10.046875 7.53515625 -2.54162025452 
10.046875 7.44545221329 -2.54162025452 
10.046875 7.35574769974 -2.54162025452 
10.046875 7.26604366302 -2.54162025452 
10.046875 7.17633914948 -2.54162025452 
10.046875 7.08663511276 -2.54162025452 
10.046875 6.99693059921 -2.54162025452 
10.046875 6.9072265625 -2.54162025452 
10.046875 6.81752252579 -2.54162025452 
10.046875 6.72781801224 -2.54162025452 
10.046875 6.63811397552 -2.54162025452 
10.046875 6.54840946198 -2.54162025452 
10.046875 6.45870542526 -2.54162025452 
10.046875 6.36900091171 -2.54162025452 
10.046875 6.279296875 -2.54162025452 
10.046875 6.18959283829 -2.54162025452 
10.046875 6.09988832474 -2.54162025452 
10.046875 6.01018428802 -2.54162025452 
10.046875 5.92047977448 -2.54162025452 
10.046875 5.83077573776 -2.54162025452 
10.046875 5.74107122421 -2.54162025452 
10.046875 5.6513671875 -2.54162025452 
10.046875 5.56166315079 -2.54162025452 
10.046875 5.47195863724 -2.54162025452 
10.046875 5.38225460052 -2.54162025452 
10.046875 5.29255008698 -2.54162025452 
10.046875 5.20284605026 -2.54162025452 
10.046875 5.11314153671 -2.54162025452 
10.046875 5.0234375 -2.54162025452 
10.046875 4.93373346329 -2.54162025452 
10.046875 4.84402894974 -2.54162025452 
10.046875 4.75432491302 -2.54162025452 
10.046875 4.66462039948 -2.54162025452 
10.046875 4.57491636276 -2.54162025452 
10.046875 4.48521184921 -2.54162025452 
10.046875 4.3955078125 -2.54162025452 
10.046875 4.30580377579 -2.54162025452 
10.046875 4.21609926224 -2.54162025452 
10.046875 4.12639522552 -2.54162025452 
10.046875 4.03669071198 -2.54162025452 
10.046875 3.94698667526 -2.54162025452 
10.046875 3.85728240013 -2.54162025452 
10.046875 3.767578125 -2.54162025452 
10.046875 3.67787384987 -2.54162025452 
10.046875 3.58816957474 -2.54162025452 
10.046875 3.49846529961 -2.54162025452 
10.046875 3.40876126289 -2.54162025452 
10.046875 3.31905698776 -2.54162025452 
10.046875 3.22935271263 -2.54162025452 
10.046875 3.1396484375 -2.54162025452 
10.046875 3.04994416237 -2.54162025452 
10.046875 2.96023988724 -2.54162025452 
10.046875 2.87053561211 -2.54162025452 
10.046875 2.78083157539 -2.54162025452 
10.046875 2.69112730026 -2.54162025452 
10.046875 2.60142302513 -2.54162025452 
10.046875 2.51171875 -2.54162025452 
10.046875 2.42201447487 -2.54162025452 
10.046875 2.33231019974 -2.54162025452 
10.046875 2.24260592461 -2.54162025452 
10.046875 2.15290188789 -2.54162025452 
10.046875 2.06319761276 -2.54162025452 
10.046875 1.97349333763 -2.54162025452 
10.046875 1.8837890625 -2.54162025452 
10.046875 1.79408478737 -2.54162025452 
10.046875 1.70438063145 -2.54162025452 
10.046875 1.61467635632 -2.54162025452 
10.046875 1.52497208118 -2.54162025452 
10.046875 1.43526780605 -2.54162025452 
10.046875 1.34556365013 -2.54162025452 
10.046875 1.255859375 -2.54162025452 
10.046875 1.16615509987 -2.54162025452 
10.046875 1.07645094395 -2.54162025452 
10.046875 0.986746668816 -2.54162025452 
10.046875 0.897042393684 -2.54162025452 
10.046875 0.807338178158 -2.54162025452 
10.046875 0.717633903027 -2.54162025452 
10.046875 0.6279296875 -2.54162025452 
10.046875 0.538225471973 -2.54162025452 
10.046875 0.448521196842 -2.54162025452 
10.046875 0.358816951513 -2.54162025452 
9.2890625 0.248814180493 -2.34991168976 
8.515625 0.152064725757 -2.15425038338 
7.9296875 0.07080078125 -2.00602221489 
7.4140625 0.0 -1.8755812645 
7.01171875 -0.0626046285033 -1.77379786968 
6.85546875 -0.122419081628 -1.73427033424 
6.85546875 -0.183628633618 -1.73427033424 
6.86328125 -0.2451171875 -1.73624670506 
6.8828125 -0.307268410921 -1.74118769169 
6.578125 -0.352399557829 -1.66410899162 
6.5859375 -0.41162109375 -1.66608536243 
6.59375 -0.470982134342 -1.66806173325 
6.6015625 -0.530482709408 -1.67003810406 
6.609375 -0.590122759342 -1.67201447487 
6.6171875 -0.64990234375 -1.67399084568 
6.625 -0.709821403027 -1.67596721649 
6.6328125 -0.769879996777 -1.6779435873 
6.640625 -0.830078125 -1.67991995811 
6.6484375 -0.890415728092 -1.68189644814 
6.65625 -0.950892865658 -1.68387281895 
6.66796875 -1.01210236549 -1.68683731556 
6.67578125 -1.07289338112 -1.68881368637 
6.68359375 -1.13382399082 -1.69079005718 
6.69140625 -1.19489395618 -1.69276642799 
6.69921875 -1.25610351562 -1.69474279881 
6.70703125 -1.31745254993 -1.69671916962 
6.71484375 -1.37894117832 -1.69869554043 
6.7265625 -1.44140625 -1.70166015625 
6.734375 -1.50320875645 -1.70363652706 
6.7421875 -1.56515061855 -1.70561289787 
6.75 -1.62723219395 -1.70758926868 
6.7578125 -1.689453125 -1.7095656395 
6.765625 -1.75181365013 -1.71154201031 
6.77734375 -1.81535995007 -1.71450662613 
6.78515625 -1.87803435326 -1.71648299694 
6.79296875 -1.94084823132 -1.71845936775 
6.80078125 -2.00380158424 -1.72043573856 
6.80859375 -2.06689453125 -1.72241210938 
6.8203125 -2.13134765625 -1.7253767252 
6.828125 -2.19475436211 -1.72735309601 
6.8359375 -2.25830078125 -1.72932946682 
6.84375 -2.32198667526 -1.73130583763 
6.85546875 -2.38717222214 -1.73427033424 
6.86328125 -2.451171875 -1.73624670506 
6.87109375 -2.51531100273 -1.73822307587 
6.87890625 -2.57958984375 -1.74019944668 
6.890625 -2.6455078125 -1.7431640625 
6.8984375 -2.71010041237 -1.74514043331 
6.90625 -2.77483248711 -1.74711680412 
6.9140625 -2.83970427513 -1.74909317493 
6.92578125 -2.90635466576 -1.75205779076 
6.93359375 -2.97154021263 -1.75403416157 
6.94140625 -3.03686523438 -1.75601053238 
6.953125 -3.10407376289 -1.75897502899 
6.9609375 -3.16971254349 -1.7609513998 
6.96875 -3.23549103737 -1.76292777061 
6.9765625 -3.30140900612 -1.76490426064 
6.98828125 -3.36934995651 -1.76786875725 
6.99609375 -3.43558168411 -1.76984512806 
7.00390625 -3.501953125 -1.77182149887 
7.015625 -3.57045197487 -1.77478611469 
7.0234375 -3.63713717461 -1.7767624855 
7.03515625 -3.70601987839 -1.77972698212 
7.04296875 -3.77301907539 -1.78170335293 
7.05078125 -3.84015774727 -1.78367972374 
7.0625 -3.90959811211 -1.78664433956 
7.0703125 -3.97705078125 -1.78862071037 
7.078125 -4.04464292526 -1.79059708118 
7.08984375 -4.11464166641 -1.79356169701 
7.09765625 -4.18254756927 -1.79553806782 
7.109375 -4.2529296875 -1.79850256443 
7.1171875 -4.32114934921 -1.80047893524 
7.125 -4.38950872421 -1.80245530605 
7.13671875 -4.46044921875 -1.80541992188 
7.14453125 -4.5291223526 -1.80739629269 
7.15625 -4.60044622421 -1.81036090851 
7.1640625 -4.66943359375 -1.81233727932 
7.17578125 -4.74114131927 -1.81530177593 
7.18359375 -4.81044244766 -1.81727814674 
7.1953125 -4.88253355026 -1.82024276257 
7.203125 -4.9521484375 -1.82221913338 
7.21484375 -5.02462339401 -1.82518362999 
7.22265625 -5.0945520401 -1.82716012001 
7.234375 -5.16741085052 -1.83012461662 
7.2421875 -5.23765325546 -1.83210098743 
10.046875 -7.35574769974 -2.54162025452 
10.046875 -7.44545221329 -2.54162025452 
10.046875 -7.53515625 -2.54162025452 
10.046875 -7.62486028671 -2.54162025452 
10.046875 -7.71456480026 -2.54162025452 
10.046875 -7.80426883698 -2.54162025452 
10.046875 -7.89397335052 -2.54162025452 
10.046875 -7.98367738724 -2.54162025452 
10.046875 -8.07338142395 -2.54162025452 
10.046875 -8.1630859375 -2.54162025452 
10.046875 -8.25279045105 -2.54162025452 
10.046875 -8.34249401093 -2.54162025452 
9.7265625 -8.16336536407 -2.46058869362 
9.7265625 -8.25020885468 -2.46058869362 
9.7265625 -8.33705329895 -2.46058869362 
9.7265625 -8.42389774323 -2.46058869362 
9.7265625 -8.5107421875 -2.46058869362 
9.7265625 -8.59758663177 -2.46058869362 
9.7265625 -8.68443107605 -2.46058869362 
9.7265625 -8.77127552032 -2.46058869362 
9.7265625 -8.85811901093 -2.46058869362 
9.7265625 -8.9449634552 -2.46058869362 
9.7265625 -9.03180789948 -2.46058869362 
9.7265625 -9.11865234375 -2.46058869362 
9.7265625 -9.20549678802 -2.46058869362 
9.7265625 -9.2923412323 -2.46058869362 
9.7265625 -9.37918567657 -2.46058869362 
9.7265625 -9.46602916718 -2.46058869362 
9.7265625 -9.55287361145 -2.46058869362 
9.7265625 -9.63971805573 -2.46058869362 
8.9453125 8.9453125 -2.34281992912 
9.0390625 8.9583568573 -2.36737346649 
9.1328125 8.9697265625 -2.39192700386 
9.2265625 8.97942256927 -2.41648054123 
9.328125 8.99497795105 -2.44308042526 
9.4296875 9.00871944427 -2.46968007088 
9.53125 9.02064704895 -2.49627971649 
9.640625 9.0380859375 -2.52492570877 
9.703125 9.01004505157 -2.54129457474 
9.703125 8.92340946198 -2.54129457474 
9.703125 8.83677482605 -2.54129457474 
9.703125 8.75013923645 -2.54129457474 
9.703125 8.66350460052 -2.54129457474 
9.703125 8.57686901093 -2.54129457474 
9.703125 8.490234375 -2.54129457474 
9.703125 8.40359973907 -2.54129457474 
9.703125 8.31696414948 -2.54129457474 
9.703125 8.23032951355 -2.54129457474 
9.703125 8.14369392395 -2.54129457474 
9.703125 8.05705928802 -2.54129457474 
9.703125 7.97042417526 -2.54129457474 
9.703125 7.8837890625 -2.54129457474 
9.703125 7.79715394974 -2.54129457474 
9.703125 7.71051883698 -2.54129457474 
9.703125 7.62388372421 -2.54129457474 
9.703125 7.53724908829 -2.54129457474 
9.703125 7.45061397552 -2.54129457474 
9.703125 7.36397886276 -2.54129457474 
9.703125 7.27734375 -2.54129457474 
9.703125 7.19070863724 -2.54129457474 
9.703125 7.10407352448 -2.54129457474 
9.703125 7.01743841171 -2.54129457474 
9.703125 6.93080377579 -2.54129457474 
9.703125 6.84416866302 -2.54129457474 
9.703125 6.75753355026 -2.54129457474 
9.703125 6.6708984375 -2.54129457474 
9.703125 6.58426332474 -2.54129457474 
9.703125 6.49762821198 -2.54129457474 
9.703125 6.41099309921 -2.54129457474 
9.703125 6.32435846329 -2.54129457474 
9.703125 6.23772335052 -2.54129457474 
9.703125 6.15108823776 -2.54129457474 
9.703125 6.064453125 -2.54129457474 
9.703125 5.97781801224 -2.54129457474 
9.703125 5.89118289948 -2.54129457474 
9.703125 5.80454778671 -2.54129457474 
9.703125 5.71791315079 -2.54129457474 
9.703125 5.63127803802 -2.54129457474 
9.703125 5.54464292526 -2.54129457474 
9.703125 5.4580078125 -2.54129457474 
9.703125 5.37137269974 -2.54129457474 
9.703125 5.28473758698 -2.54129457474 
9.703125 5.19810247421 -2.54129457474 
9.703125 5.11146783829 -2.54129457474 
9.703125 5.02483272552 -2.54129457474 
9.703125 4.93819761276 -2.54129457474 
9.703125 4.8515625 -2.54129457474 
9.703125 4.76492738724 -2.54129457474 
9.703125 4.67829227448 -2.54129457474 
9.703125 4.59165716171 -2.54129457474 
9.703125 4.50502252579 -2.54129457474 
9.703125 4.41838741302 -2.54129457474 
9.703125 4.33175230026 -2.54129457474 
9.703125 4.2451171875 -2.54129457474 
9.703125 4.15848207474 -2.54129457474 
9.703125 4.07184696198 -2.54129457474 
9.703125 3.98521208763 -2.54129457474 
9.703125 3.89857697487 -2.54129457474 
9.703125 3.81194186211 -2.54129457474 
9.703125 3.72530698776 -2.54129457474 
9.703125 3.638671875 -2.54129457474 
9.703125 3.55203676224 -2.54129457474 
9.703125 3.46540188789 -2.54129457474 
9.703125 3.37876677513 -2.54129457474 
9.703125 3.29213166237 -2.54129457474 
9.703125 3.20549654961 -2.54129457474 
9.703125 3.11886167526 -2.54129457474 
9.703125 3.0322265625 -2.54129457474 
9.703125 2.94559144974 -2.54129457474 
9.703125 2.85895657539 -2.54129457474 
9.703125 2.77232146263 -2.54129457474 
9.703125 2.68568634987 -2.54129457474 
9.703125 2.59905123711 -2.54129457474 
9.703125 2.51241636276 -2.54129457474 
9.703125 2.42578125 -2.54129457474 
9.703125 2.33914613724 -2.54129457474 
9.703125 2.25251126289 -2.54129457474 
9.703125 2.16587615013 -2.54129457474 
9.703125 2.07924103737 -2.54129457474 
9.703125 1.99260604382 -2.54129457474 
9.703125 1.90597093105 -2.54129457474 
9.703125 1.8193359375 -2.54129457474 
9.703125 1.73270094395 -2.54129457474 
9.703125 1.64606583118 -2.54129457474 
9.703125 1.55943083763 -2.54129457474 
9.703125 1.47279572487 -2.54129457474 
9.703125 1.38616073132 -2.54129457474 
9.703125 1.29952561855 -2.54129457474 
9.703125 1.212890625 -2.54129457474 
9.703125 1.12625563145 -2.54129457474 
9.703125 1.03962051868 -2.54129457474 
9.703125 0.952985465527 -2.54129457474 
9.703125 0.866350471973 -2.54129457474 
9.703125 0.779715418816 -2.54129457474 
9.703125 0.693080365658 -2.54129457474 
9.703125 0.6064453125 -2.54129457474 
9.703125 0.519810259342 -2.54129457474 
9.703125 0.433175235987 -2.54129457474 
9.703125 0.346540182829 -2.54129457474 
9.1015625 0.243791848421 -2.38374257088 
8.515625 0.152064725757 -2.23028278351 
7.9296875 0.07080078125 -2.07682299614 
7.4140625 0.0 -1.94177830219 
7.01171875 -0.0626046285033 -1.83640253544 
6.85546875 -0.122419081628 -1.79547989368 
6.85546875 -0.183628633618 -1.79547989368 
6.86328125 -0.2451171875 -1.79752600193 
6.8828125 -0.307268410921 -1.80264139175 
6.578125 -0.352399557829 -1.72284221649 
6.5859375 -0.41162109375 -1.72488844395 
6.59375 -0.470982134342 -1.72693455219 
6.6015625 -0.530482709408 -1.72898066044 
6.609375 -0.590122759342 -1.73102676868 
6.6171875 -0.64990234375 -1.73307287693 
6.625 -0.709821403027 -1.73511910439 
6.6328125 -0.769879996777 -1.73716521263 
6.640625 -0.830078125 -1.73921132088 
6.6484375 -0.890415728092 -1.74125742912 
6.65625 -0.950892865658 -1.74330353737 
6.66796875 -1.01210236549 -1.74637281895 
6.67578125 -1.07289338112 -1.74841892719 
6.68359375 -1.13382399082 -1.75046503544 
6.69140625 -1.19489395618 -1.75251114368 
6.69921875 -1.25610351562 -1.75455725193 
6.70703125 -1.31745254993 -1.75660347939 
6.71484375 -1.37894117832 -1.75864958763 
6.7265625 -1.44140625 -1.76171875 
6.734375 -1.50320875645 -1.76376485825 
6.7421875 -1.56515061855 -1.76581096649 
6.75 -1.62723219395 -1.76785719395 
6.7578125 -1.689453125 -1.76990330219 
6.765625 -1.75181365013 -1.77194941044 
6.77734375 -1.81535995007 -1.77501857281 
6.78515625 -1.87803435326 -1.77706468105 
6.79296875 -1.94084823132 -1.77911090851 
6.80078125 -2.00380158424 -1.78115701675 
6.80859375 -2.06689453125 -1.783203125 
6.8203125 -2.13134765625 -1.78627228737 
6.828125 -2.19475436211 -1.78831839561 
6.8359375 -2.25830078125 -1.79036462307 
6.84375 -2.32198667526 -1.79241073132 
6.85546875 -2.38717222214 -1.79547989368 
6.86328125 -2.451171875 -1.79752600193 
6.87109375 -2.51531100273 -1.79957222939 
6.87890625 -2.57958984375 -1.80161833763 
6.890625 -2.6455078125 -1.8046875 
6.8984375 -2.71010041237 -1.80673360825 
6.90625 -2.77483248711 -1.80877971649 
6.9140625 -2.83970427513 -1.81082594395 
6.92578125 -2.90635466576 -1.81389510632 
6.93359375 -2.97154021263 -1.81594121456 
6.94140625 -3.03686523438 -1.81798732281 
6.953125 -3.10407376289 -1.82105660439 
6.9609375 -3.16971254349 -1.82310271263 
6.96875 -3.23549103737 -1.82514882088 
6.9765625 -3.30140900612 -1.82719492912 
6.98828125 -3.36934995651 -1.83026409149 
6.99609375 -3.43558168411 -1.83231031895 
7.00390625 -3.501953125 -1.83435642719 
7.015625 -3.57045197487 -1.83742558956 
7.0234375 -3.63713717461 -1.83947169781 
7.03515625 -3.70601987839 -1.84254097939 
7.04296875 -3.77301907539 -1.84458708763 
7.05078125 -3.84015774727 -1.84663319588 
7.0625 -3.90959811211 -1.84970235825 
7.0703125 -3.97705078125 -1.85174846649 
7.078125 -4.04464292526 -1.85379469395 
7.08984375 -4.11464166641 -1.85686385632 
7.09765625 -4.18254756927 -1.85890996456 
7.109375 -4.2529296875 -1.86197912693 
7.1171875 -4.32114934921 -1.86402535439 
7.125 -4.38950872421 -1.86607146263 
7.13671875 -4.46044921875 -1.869140625 
7.14453125 -4.5291223526 -1.87118673325 
7.15625 -4.60044622421 -1.87425589561 
7.1640625 -4.66943359375 -1.87630212307 
7.17578125 -4.74114131927 -1.87937128544 
7.18359375 -4.81044244766 -1.88141739368 
7.1953125 -4.88253355026 -1.88448655605 
7.203125 -4.9521484375 -1.88653278351 
7.21484375 -5.02462339401 -1.88960194588 
7.22265625 -5.0945520401 -1.89164805412 
7.234375 -5.16741085052 -1.89471721649 
7.2421875 -5.23765325546 -1.89676344395 
9.703125 -7.10407352448 -2.54129457474 
9.703125 -7.19070863724 -2.54129457474 
9.703125 -7.27734375 -2.54129457474 
9.703125 -7.36397886276 -2.54129457474 
9.703125 -7.45061397552 -2.54129457474 
9.703125 -7.53724908829 -2.54129457474 
9.703125 -7.62388372421 -2.54129457474 
9.703125 -7.71051883698 -2.54129457474 
9.703125 -7.79715394974 -2.54129457474 
9.703125 -7.8837890625 -2.54129457474 
9.703125 -7.97042417526 -2.54129457474 
9.703125 -8.05705928802 -2.54129457474 
9.703125 -8.14369392395 -2.54129457474 
9.703125 -8.23032951355 -2.54129457474 
9.703125 -8.31696414948 -2.54129457474 
9.3984375 -8.13971805573 -2.46149563789 
9.3984375 -8.2236328125 -2.46149563789 
9.3984375 -8.30754756927 -2.46149563789 
9.3984375 -8.39146232605 -2.46149563789 
9.3984375 -8.47537708282 -2.46149563789 
9.3984375 -8.55929088593 -2.46149563789 
9.3984375 -8.6432056427 -2.46149563789 
9.3984375 -8.72712039948 -2.46149563789 
9.3984375 -8.81103515625 -2.46149563789 
9.3984375 -8.89494991302 -2.46149563789 
9.3984375 -8.9788646698 -2.46149563789 
9.3984375 -9.06277942657 -2.46149563789 
9.3984375 -9.14669322968 -2.46149563789 
9.3984375 -9.23060798645 -2.46149563789 
9.3984375 -9.31452274323 -2.46149563789 
8.9453125 8.9453125 -2.42268872261 
9.0390625 8.9583568573 -2.44807934761 
9.1328125 8.9697265625 -2.47346997261 
9.2265625 8.97942256927 -2.49886059761 
9.328125 8.99497795105 -2.5263671875 
9.3828125 8.96393680573 -2.54117846489 
9.3828125 8.88016223907 -2.54117846489 
9.3828125 8.79638671875 -2.54117846489 
9.3828125 8.71261119843 -2.54117846489 
9.3828125 8.62883663177 -2.54117846489 
9.3828125 8.54506111145 -2.54117846489 
9.3828125 8.4612865448 -2.54117846489 
9.3828125 8.37751102448 -2.54117846489 
9.3828125 8.29373645782 -2.54117846489 
9.3828125 8.2099609375 -2.54117846489 
9.3828125 8.12618541718 -2.54117846489 
9.3828125 8.04241085052 -2.54117846489 
9.3828125 7.95863580704 -2.54117846489 
9.3828125 7.87486028671 -2.54117846489 
9.3828125 7.79108524323 -2.54117846489 
9.3828125 7.70731019974 -2.54117846489 
9.3828125 7.62353515625 -2.54117846489 
9.3828125 7.53976011276 -2.54117846489 
9.3828125 7.45598506927 -2.54117846489 
9.3828125 7.37221002579 -2.54117846489 
9.3828125 7.28843450546 -2.54117846489 
9.3828125 7.20465946198 -2.54117846489 
9.3828125 7.12088441849 -2.54117846489 
9.3828125 7.037109375 -2.54117846489 
9.3828125 6.95333433151 -2.54117846489 
9.3828125 6.86955928802 -2.54117846489 
9.3828125 6.78578424454 -2.54117846489 
9.3828125 6.70200872421 -2.54117846489 
9.3828125 6.61823368073 -2.54117846489 
9.3828125 6.53445863724 -2.54117846489 
9.3828125 6.45068359375 -2.54117846489 
9.3828125 6.36690855026 -2.54117846489 
9.3828125 6.28313350677 -2.54117846489 
9.3828125 6.19935846329 -2.54117846489 
9.3828125 6.11558294296 -2.54117846489 
9.3828125 6.03180789948 -2.54117846489 
9.3828125 5.94803285599 -2.54117846489 
9.3828125 5.8642578125 -2.54117846489 
9.3828125 5.78048276901 -2.54117846489 
9.3828125 5.69670772552 -2.54117846489 
9.3828125 5.61293268204 -2.54117846489 
9.3828125 5.52915716171 -2.54117846489 
9.3828125 5.44538211823 -2.54117846489 
9.3828125 5.36160707474 -2.54117846489 
9.3828125 5.27783203125 -2.54117846489 
9.3828125 5.19405698776 -2.54117846489 
9.3828125 5.11028194427 -2.54117846489 
9.3828125 5.02650690079 -2.54117846489 
9.3828125 4.94273138046 -2.54117846489 
9.3828125 4.85895633698 -2.54117846489 
9.3828125 4.77518129349 -2.54117846489 
9.3828125 4.69140625 -2.54117846489 
9.3828125 4.60763120651 -2.54117846489 
9.3828125 4.52385616302 -2.54117846489 
9.3828125 4.44008111954 -2.54117846489 
9.3828125 4.35630559921 -2.54117846489 
9.3828125 4.27253055573 -2.54117846489 
9.3828125 4.18875551224 -2.54117846489 
9.3828125 4.10498046875 -2.54117846489 
9.3828125 4.02120542526 -2.54117846489 
9.3828125 3.93743014336 -2.54117846489 
9.3828125 3.85365509987 -2.54117846489 
9.3828125 3.76988005638 -2.54117846489 
9.3828125 3.68610501289 -2.54117846489 
9.3828125 3.60232973099 -2.54117846489 
9.3828125 3.5185546875 -2.54117846489 
9.3828125 3.43477964401 -2.54117846489 
9.3828125 3.35100436211 -2.54117846489 
9.3828125 3.26722931862 -2.54117846489 
9.3828125 3.18345427513 -2.54117846489 
9.3828125 3.09967923164 -2.54117846489 
9.3828125 3.01590394974 -2.54117846489 
9.3828125 2.93212890625 -2.54117846489 
9.3828125 2.84835386276 -2.54117846489 
9.3828125 2.76457858086 -2.54117846489 
9.3828125 2.68080353737 -2.54117846489 
9.3828125 2.59702849388 -2.54117846489 
9.3828125 2.51325345039 -2.54117846489 
9.3828125 2.42947816849 -2.54117846489 
9.3828125 2.345703125 -2.54117846489 
9.3828125 2.26192808151 -2.54117846489 
9.3828125 2.17815279961 -2.54117846489 
9.3828125 2.09437775612 -2.54117846489 
9.3828125 2.01060271263 -2.54117846489 
9.3828125 1.92682754993 -2.54117846489 
9.3828125 1.84305250645 -2.54117846489 
9.3828125 1.75927734375 -2.54117846489 
9.3828125 1.67550218105 -2.54117846489 
9.3828125 1.59172713757 -2.54117846489 
9.3828125 1.50795197487 -2.54117846489 
9.3828125 1.42417693138 -2.54117846489 
9.3828125 1.34040176868 -2.54117846489 
9.3828125 1.2566267252 -2.54117846489 
9.3828125 1.1728515625 -2.54117846489 
9.3828125 1.0890763998 -2.54117846489 
9.3828125 1.00530135632 -2.54117846489 
9.3828125 0.921526253223 -2.54117846489 
9.3828125 0.837751090527 -2.54117846489 
9.3828125 0.753975987434 -2.54117846489 
9.3828125 0.670200884342 -2.54117846489 
9.3828125 0.58642578125 -2.54117846489 
9.3828125 0.502650678158 -2.54117846489 
9.3828125 0.418875545263 -2.54117846489 
9.3828125 0.335100442171 -2.54117846489 
9.0390625 0.242117747664 -2.44807934761 
8.640625 0.154296875 -2.34016919136 
7.9296875 0.07080078125 -2.14762377739 
7.4140625 0.0 -2.00797533989 
7.01171875 -0.0626046285033 -1.89900720119 
6.85546875 -0.122419081628 -1.85668945312 
6.85546875 -0.183628633618 -1.85668945312 
6.86328125 -0.2451171875 -1.85880529881 
6.8828125 -0.307268410921 -1.86409509182 
6.578125 -0.352399557829 -1.78157556057 
6.5859375 -0.41162109375 -1.78369140625 
6.59375 -0.470982134342 -1.78580725193 
6.6015625 -0.530482709408 -1.78792321682 
6.609375 -0.590122759342 -1.7900390625 
6.6171875 -0.64990234375 -1.79215490818 
6.625 -0.709821403027 -1.79427087307 
6.6328125 -0.769879996777 -1.79638671875 
6.640625 -0.830078125 -1.79850256443 
6.6484375 -0.890415728092 -1.80061852932 
6.65625 -0.950892865658 -1.802734375 
6.66796875 -1.01210236549 -1.80590820312 
6.67578125 -1.07289338112 -1.80802404881 
6.68359375 -1.13382399082 -1.81014001369 
6.69140625 -1.19489395618 -1.81225585938 
6.69921875 -1.25610351562 -1.81437170506 
6.70703125 -1.31745254993 -1.81648766994 
6.71484375 -1.37894117832 -1.81860351562 
6.7265625 -1.44140625 -1.82177734375 
6.734375 -1.50320875645 -1.82389318943 
6.7421875 -1.56515061855 -1.82600915432 
6.75 -1.62723219395 -1.828125 
6.7578125 -1.689453125 -1.83024084568 
6.765625 -1.75181365013 -1.83235681057 
6.77734375 -1.81535995007 -1.83553063869 
6.78515625 -1.87803435326 -1.83764648438 
6.79296875 -1.94084823132 -1.83976233006 
6.80078125 -2.00380158424 -1.84187829494 
6.80859375 -2.06689453125 -1.84399414062 
6.8203125 -2.13134765625 -1.84716796875 
6.828125 -2.19475436211 -1.84928381443 
6.8359375 -2.25830078125 -1.85139977932 
6.84375 -2.32198667526 -1.853515625 
6.85546875 -2.38717222214 -1.85668945312 
6.86328125 -2.451171875 -1.85880529881 
6.87109375 -2.51531100273 -1.86092126369 
6.87890625 -2.57958984375 -1.86303710938 
6.890625 -2.6455078125 -1.8662109375 
6.8984375 -2.71010041237 -1.86832678318 
6.90625 -2.77483248711 -1.87044274807 
6.9140625 -2.83970427513 -1.87255859375 
6.92578125 -2.90635466576 -1.87573242188 
6.93359375 -2.97154021263 -1.87784826756 
6.94140625 -3.03686523438 -1.87996423244 
6.953125 -3.10407376289 -1.88313806057 
6.9609375 -3.16971254349 -1.88525390625 
6.96875 -3.23549103737 -1.88736975193 
6.9765625 -3.30140900612 -1.88948571682 
6.98828125 -3.36934995651 -1.89265954494 
6.99609375 -3.43558168411 -1.89477539062 
7.00390625 -3.501953125 -1.89689123631 
7.015625 -3.57045197487 -1.90006506443 
7.0234375 -3.63713717461 -1.90218102932 
7.03515625 -3.70601987839 -1.90535485744 
7.04296875 -3.77301907539 -1.90747070312 
7.05078125 -3.84015774727 -1.90958654881 
7.0625 -3.90959811211 -1.91276037693 
7.0703125 -3.97705078125 -1.91487634182 
7.078125 -4.04464292526 -1.9169921875 
7.08984375 -4.11464166641 -1.92016601562 
7.09765625 -4.18254756927 -1.92228186131 
7.109375 -4.2529296875 -1.92545568943 
7.1171875 -4.32114934921 -1.92757165432 
7.125 -4.38950872421 -1.9296875 
7.13671875 -4.46044921875 -1.93286132812 
7.14453125 -4.5291223526 -1.93497717381 
7.15625 -4.60044622421 -1.93815100193 
7.1640625 -4.66943359375 -1.94026696682 
7.17578125 -4.74114131927 -1.94344079494 
7.18359375 -4.81044244766 -1.94555664062 
7.1953125 -4.88253355026 -1.94873046875 
7.203125 -4.9521484375 -1.95084631443 
7.21484375 -5.02462339401 -1.95402014256 
7.22265625 -5.0945520401 -1.95613610744 
7.234375 -5.16741085052 -1.95930993557 
7.2421875 -5.23765325546 -1.96142578125 
9.3828125 -6.86955928802 -2.54117846489 
9.3828125 -6.95333433151 -2.54117846489 
9.3828125 -7.037109375 -2.54117846489 
9.3828125 -7.12088441849 -2.54117846489 
9.3828125 -7.20465946198 -2.54117846489 
9.3828125 -7.28843450546 -2.54117846489 
