7.846912 2.414434 10.140625
7.907273 2.414434 10.140625
7.967634 2.414434 10.140625
8.027995 2.414434 10.140625
8.088356 2.414434 10.140625
8.148717 2.414434 10.140625
8.209078 2.414434 10.140625
8.269438 2.414434 10.140625
8.329799 2.414434 10.140625
8.390160 2.414434 10.140625
8.450521 2.414434 10.140625
8.510881 2.414434 10.140625
8.571242 2.414434 10.140625
8.631603 2.414434 10.140625
8.691964 2.414434 10.140625
8.752325 2.414434 10.140625
8.812686 2.414434 10.140625
8.873047 2.414434 10.140625
8.933408 2.414434 10.140625
8.993769 2.414434 10.140625
9.054130 2.414434 10.140625
9.114491 2.414434 10.140625
9.174851 2.414434 10.140625
9.235212 2.414434 10.140625
9.295573 2.414434 10.140625
9.355934 2.414434 10.140625
9.416295 2.414434 10.140625
9.476656 2.414434 10.140625
9.537016 2.414434 10.140625
9.597377 2.414434 10.140625
9.657738 2.414434 10.140625
9.718099 2.414434 10.140625
9.778460 2.414434 10.140625
9.838820 2.414434 10.140625
9.899181 2.414434 10.140625
9.959542 2.414434 10.140625
10.019903 2.414434 10.140625
10.080264 2.414434 10.140625
-3.554688 0.867513 3.554688
-3.552944 0.872280 3.574219
-3.552897 0.877523 3.595703
-3.552595 0.882766 3.617188
-3.552037 0.888009 3.638672
-3.551223 0.893252 3.660156
-3.550153 0.898496 3.681641
-3.550700 0.904216 3.705078
-3.549107 0.909459 3.726562
-3.549107 0.915179 3.750000
-3.548828 0.920898 3.773438
-3.548270 0.926618 3.796875
-3.547433 0.932338 3.820312
-3.546317 0.938058 3.843750
-3.546712 0.944255 3.869141
-3.545027 0.949974 3.892578
-3.544829 0.956171 3.917969
-3.544329 0.962367 3.943359
-3.543527 0.968564 3.968750
-3.542422 0.974761 3.994141
-3.541016 0.980957 4.019531
-3.541016 0.987630 4.046875
-3.540690 0.994303 4.074219
-3.540039 1.000977 4.101562
-3.539062 1.007650 4.128906
-3.537760 1.014323 4.156250
-3.536133 1.020996 4.183594
-3.537458 1.028623 4.214844
-3.535156 1.035296 4.242188
-3.535761 1.042922 4.273438
-3.532785 1.049595 4.300781
-3.532668 1.057222 4.332031
-3.532180 1.064848 4.363281
-3.314732 1.006696 4.125000
-3.262137 0.998117 4.089844
-3.237793 0.998117 4.089844
-3.219587 1.000023 4.097656
-3.201288 1.001930 4.105469
-3.182896 1.003837 4.113281
-3.164411 1.005743 4.121094
-3.148809 1.008603 4.132812
-3.138974 1.013370 4.152344
-3.128906 1.018136 4.171875
-3.124419 1.024809 4.199219
-3.122489 1.032436 4.230469
-3.120187 1.040062 4.261719
-3.117513 1.047689 4.292969
-3.114467 1.055315 4.324219
-3.113839 1.063895 4.359375
-3.110026 1.071522 4.390625
-3.108584 1.080101 4.425781
-3.106724 1.088681 4.460938
-3.104446 1.097261 4.496094
-3.101748 1.105841 4.531250
-3.098633 1.114421 4.566406
-3.097726 1.123954 4.605469
-3.093750 1.132533 4.640625
-3.091936 1.142067 4.679688
-3.089658 1.151600 4.718750
-3.086914 1.161133 4.757812
-3.083705 1.170666 4.796875
-3.082520 1.181152 4.839844
-3.078357 1.190686 4.878906
-3.076172 1.201172 4.921875
-3.073475 1.211658 4.964844
-3.063081 1.219285 4.996094
-3.049944 1.225958 5.023438
-3.048223 1.237398 5.070312
-3.052920 1.251697 5.128906
-3.052316 1.264090 5.179688
-3.053385 1.277437 5.234375
-3.053804 1.290783 5.289062
-3.051339 1.303176 5.339844
-3.048270 1.315569 5.390625
-2.998698 1.307943 5.359375
-2.960310 1.305083 5.347656
-2.924200 1.303176 5.339844
-2.890300 1.302223 5.335938
-2.856445 1.301270 5.332031
-2.822638 1.300316 5.328125
-2.786830 1.298410 5.320312
-2.753139 1.297456 5.316406
-2.719494 1.296503 5.312500
-2.683919 1.294596 5.304688
-2.650391 1.293643 5.300781
-2.616909 1.292690 5.296875
-2.583473 1.291736 5.292969
-2.548200 1.289830 5.285156
-2.514881 1.288877 5.281250
-2.481608 1.287923 5.277344
-2.448382 1.286970 5.273438
-2.413411 1.285063 5.265625
-2.380301 1.284110 5.261719
-2.347238 1.283157 5.257812
-2.314221 1.282203 5.253906
-2.279553 1.280297 5.246094
-2.246652 1.279343 5.242188
-2.213797 1.278390 5.238281
-2.180990 1.277437 5.234375
-2.146624 1.275530 5.226562
-2.113932 1.274577 5.222656
-2.081287 1.273623 5.218750
-2.048689 1.272670 5.214844
-2.016137 1.271717 5.210938
-1.986607 1.272670 5.214844
-1.958496 1.274577 5.222656
-1.931734 1.277437 5.234375
-1.903413 1.279343 5.242188
-1.875000 1.281250 5.250000
-1.846494 1.283157 5.257812
-1.819243 1.286017 5.269531
-1.790527 1.287923 5.277344
-1.761719 1.289830 5.285156
-1.734096 1.292690 5.296875
-1.705078 1.294596 5.304688
-1.675967 1.296503 5.312500
-1.646763 1.298410 5.320312
-1.618652 1.301270 5.332031
-1.589239 1.303176 5.339844
-1.559733 1.305083 5.347656
-1.531250 1.307943 5.359375
-1.505906 1.313663 5.382812
-1.481352 1.320336 5.410156
-1.455427 1.326056 5.433594
-1.450707 1.351795 5.539062
-1.447731 1.380394 5.656250
-1.438477 1.404227 5.753906
-1.417573 1.417573 5.808594
-1.396949 1.431873 5.867188
-1.383789 1.454753 5.960938
-1.379232 1.488119 6.097656
-1.376488 1.525298 6.250000
-1.362723 1.551990 6.359375
-1.328939 1.556757 6.378906
-1.324963 1.597749 6.546875
-1.866071 2.318452 9.500000
-1.367560 1.752186 7.179688
-1.339960 1.772205 7.261719
-1.693638 2.314639 9.484375
-1.635835 2.312732 9.476562
-1.579427 2.312732 9.476562
-1.525530 2.316546 9.492188
-1.530692 2.413784 9.890625
-1.471819 2.413784 9.890625
-1.412946 2.413784 9.890625
-1.354074 2.413784 9.890625
-1.295201 2.413784 9.890625
-1.236328 2.413784 9.890625
-1.177455 2.413784 9.890625
-1.118583 2.413784 9.890625
-1.059710 2.413784 9.890625
-1.000837 2.413784 9.890625
-0.941964 2.413784 9.890625
-0.883092 2.413784 9.890625
-0.824219 2.413784 9.890625
-0.765346 2.413784 9.890625
-0.706473 2.413784 9.890625
-0.647600 2.413784 9.890625
-0.588728 2.413784 9.890625
-0.529855 2.413784 9.890625
-0.470982 2.413784 9.890625
-0.412109 2.413784 9.890625
-0.353237 2.413784 9.890625
-0.294364 2.413784 9.890625
-0.235491 2.413784 9.890625
-0.176618 2.413784 9.890625
-0.117746 2.413784 9.890625
-0.058873 2.413784 9.890625
0.000000 2.413784 9.890625
0.058873 2.413784 9.890625
0.117746 2.413784 9.890625
0.176618 2.413784 9.890625
0.235491 2.413784 9.890625
0.294364 2.413784 9.890625
0.353237 2.413784 9.890625
0.412109 2.413784 9.890625
0.470982 2.413784 9.890625
0.529855 2.413784 9.890625
0.588728 2.413784 9.890625
0.647600 2.413784 9.890625
0.706473 2.413784 9.890625
0.765346 2.413784 9.890625
0.824219 2.413784 9.890625
0.883092 2.413784 9.890625
0.941964 2.413784 9.890625
1.000837 2.413784 9.890625
1.059710 2.413784 9.890625
1.118583 2.413784 9.890625
1.177455 2.413784 9.890625
1.236328 2.413784 9.890625
1.295201 2.413784 9.890625
1.354074 2.413784 9.890625
1.412946 2.413784 9.890625
1.471819 2.413784 9.890625
1.530692 2.413784 9.890625
1.589565 2.413784 9.890625
1.648438 2.413784 9.890625
1.707310 2.413784 9.890625
1.766183 2.413784 9.890625
1.825056 2.413784 9.890625
1.883929 2.413784 9.890625
1.942801 2.413784 9.890625
2.001674 2.413784 9.890625
2.060547 2.413784 9.890625
2.119420 2.413784 9.890625
2.178293 2.413784 9.890625
2.237165 2.413784 9.890625
2.296038 2.413784 9.890625
2.354911 2.413784 9.890625
2.413784 2.413784 9.890625
2.472656 2.413784 9.890625
2.531529 2.413784 9.890625
2.590402 2.413784 9.890625
2.649275 2.413784 9.890625
2.708147 2.413784 9.890625
2.767020 2.413784 9.890625
2.825893 2.413784 9.890625
2.884766 2.413784 9.890625
2.943638 2.413784 9.890625
3.002511 2.413784 9.890625
3.061384 2.413784 9.890625
3.120257 2.413784 9.890625
3.179129 2.413784 9.890625
3.238002 2.413784 9.890625
3.296875 2.413784 9.890625
3.355748 2.413784 9.890625
3.414621 2.413784 9.890625
3.473493 2.413784 9.890625
3.532366 2.413784 9.890625
3.591239 2.413784 9.890625
3.650112 2.413784 9.890625
3.708984 2.413784 9.890625
3.767857 2.413784 9.890625
3.826730 2.413784 9.890625
3.885603 2.413784 9.890625
3.944475 2.413784 9.890625
4.003348 2.413784 9.890625
4.062221 2.413784 9.890625
4.121094 2.413784 9.890625
4.179966 2.413784 9.890625
4.238839 2.413784 9.890625
4.297712 2.413784 9.890625
4.356585 2.413784 9.890625
4.415458 2.413784 9.890625
4.474330 2.413784 9.890625
4.533203 2.413784 9.890625
4.592076 2.413784 9.890625
4.650949 2.413784 9.890625
4.709821 2.413784 9.890625
4.768694 2.413784 9.890625
4.827567 2.413784 9.890625
4.886440 2.413784 9.890625
4.945312 2.413784 9.890625
5.004185 2.413784 9.890625
5.063058 2.413784 9.890625
5.121931 2.413784 9.890625
5.180804 2.413784 9.890625
5.239676 2.413784 9.890625
5.298549 2.413784 9.890625
5.357422 2.413784 9.890625
5.416295 2.413784 9.890625
5.475167 2.413784 9.890625
5.534040 2.413784 9.890625
5.592913 2.413784 9.890625
5.651786 2.413784 9.890625
5.710659 2.413784 9.890625
5.769531 2.413784 9.890625
5.828404 2.413784 9.890625
5.887277 2.413784 9.890625
5.946149 2.413784 9.890625
6.005023 2.413784 9.890625
6.063895 2.413784 9.890625
6.122768 2.413784 9.890625
6.181641 2.413784 9.890625
6.240513 2.413784 9.890625
6.299386 2.413784 9.890625
6.358259 2.413784 9.890625
6.417132 2.413784 9.890625
6.476005 2.413784 9.890625
6.534877 2.413784 9.890625
6.593750 2.413784 9.890625
6.652623 2.413784 9.890625
6.711495 2.413784 9.890625
6.770368 2.413784 9.890625
6.829241 2.413784 9.890625
6.888114 2.413784 9.890625
6.946987 2.413784 9.890625
7.005859 2.413784 9.890625
7.064732 2.413784 9.890625
7.123605 2.413784 9.890625
7.182477 2.413784 9.890625
7.241351 2.413784 9.890625
7.300223 2.413784 9.890625
7.359096 2.413784 9.890625
7.417969 2.413784 9.890625
7.476841 2.413784 9.890625
7.535714 2.413784 9.890625
7.594587 2.413784 9.890625
7.653460 2.413784 9.890625
7.712333 2.413784 9.890625
7.771205 2.413784 9.890625
7.830078 2.413784 9.890625
7.888951 2.413784 9.890625
7.947824 2.413784 9.890625
8.006697 2.413784 9.890625
8.065569 2.413784 9.890625
8.124442 2.413784 9.890625
8.183314 2.413784 9.890625
8.242188 2.413784 9.890625
8.301061 2.413784 9.890625
8.359933 2.413784 9.890625
8.418806 2.413784 9.890625
8.477678 2.413784 9.890625
8.536551 2.413784 9.890625
8.595424 2.413784 9.890625
8.654297 2.413784 9.890625
8.713170 2.413784 9.890625
8.772042 2.413784 9.890625
8.830915 2.413784 9.890625
8.889788 2.413784 9.890625
8.948661 2.413784 9.890625
9.007533 2.413784 9.890625
9.066406 2.413784 9.890625
9.125279 2.413784 9.890625
9.184152 2.413784 9.890625
9.243025 2.413784 9.890625
9.301897 2.413784 9.890625
9.360770 2.413784 9.890625
9.419642 2.413784 9.890625
9.478516 2.413784 9.890625
9.537389 2.413784 9.890625
9.596261 2.413784 9.890625
9.655134 2.413784 9.890625
9.714006 2.413784 9.890625
9.772880 2.413784 9.890625
9.831752 2.413784 9.890625
-3.554688 0.888672 3.554688
-3.552944 0.893555 3.574219
-3.552897 0.898926 3.595703
-3.552595 0.904297 3.617188
-3.552037 0.909668 3.638672
-3.551223 0.915039 3.660156
-3.550153 0.920410 3.681641
-3.550700 0.926270 3.705078
-3.549107 0.931641 3.726562
-3.549107 0.937500 3.750000
-3.548828 0.943359 3.773438
-3.548270 0.949219 3.796875
-3.547433 0.955078 3.820312
-3.546317 0.960938 3.843750
-3.546712 0.967285 3.869141
-3.545027 0.973145 3.892578
-3.544829 0.979492 3.917969
-3.544329 0.985840 3.943359
-3.543527 0.992188 3.968750
-3.542422 0.998535 3.994141
-3.541016 1.004883 4.019531
-3.541016 1.011719 4.046875
-3.540690 1.018555 4.074219
-3.540039 1.025391 4.101562
-3.539062 1.032227 4.128906
-3.537760 1.039062 4.156250
-3.536133 1.045898 4.183594
-3.537458 1.053711 4.214844
-3.535156 1.060547 4.242188
-3.535761 1.068359 4.273438
-3.532785 1.075195 4.300781
-3.532668 1.083008 4.332031
-3.532180 1.090820 4.363281
-3.317871 1.032227 4.128906
-3.271484 1.025391 4.101562
-3.237793 1.022461 4.089844
-3.216518 1.023438 4.093750
-3.201288 1.026367 4.105469
-3.182896 1.028320 4.113281
-3.164411 1.030273 4.121094
-3.148809 1.033203 4.132812
-3.136021 1.037109 4.148438
-3.128906 1.042969 4.171875
-3.121512 1.048828 4.195312
-3.116723 1.055664 4.222656
-3.117327 1.064453 4.257812
-3.114676 1.072266 4.289062
-3.111654 1.080078 4.320312
-3.108259 1.087891 4.351562
-3.107259 1.096680 4.386719
-3.105841 1.105469 4.421875
-3.104004 1.114258 4.457031
-3.101748 1.123047 4.492188
-3.099075 1.131836 4.527344
-3.095982 1.140625 4.562500
-3.092471 1.149414 4.597656
-3.091146 1.159180 4.636719
-3.089355 1.168945 4.675781
-3.087100 1.178711 4.714844
-3.084380 1.188477 4.753906
-3.081194 1.198242 4.792969
-3.077544 1.208008 4.832031
-3.075893 1.218750 4.875000
-3.071289 1.228516 4.914062
-3.068638 1.239258 4.957031
-3.060686 1.248047 4.992188
-3.057059 1.258789 5.035156
-3.052920 1.269531 5.078125
-3.052920 1.282227 5.128906
-3.052316 1.294922 5.179688
-3.053385 1.308594 5.234375
-3.035761 1.314453 5.257812
-2.984375 1.305664 5.222656
-2.948870 1.303711 5.214844
-2.915644 1.302734 5.210938
-2.882464 1.301758 5.207031
-2.849330 1.300781 5.203125
-2.814128 1.298828 5.195312
-2.781111 1.297852 5.191406
-2.748140 1.296875 5.187500
-2.715216 1.295898 5.183594
-2.682338 1.294922 5.179688
-2.647507 1.292969 5.171875
-2.614746 1.291992 5.167969
-2.582031 1.291016 5.164062
-2.549363 1.290039 5.160156
-2.516741 1.289062 5.156250
-2.482282 1.287109 5.148438
-2.449777 1.286133 5.144531
-2.417318 1.285156 5.140625
-2.384905 1.284180 5.136719
-2.352539 1.283203 5.132812
-2.318452 1.281250 5.125000
-2.286203 1.280273 5.121094
-2.253999 1.279297 5.117188
-2.221843 1.278320 5.113281
-2.189732 1.277344 5.109375
-2.157668 1.276367 5.105469
-2.124023 1.274414 5.097656
-2.092076 1.273438 5.093750
-2.060175 1.272461 5.089844
-2.028320 1.271484 5.085938
-1.999581 1.272461 5.089844
-1.972307 1.274414 5.097656
-1.944940 1.276367 5.105469
-1.917480 1.278320 5.113281
-1.889928 1.280273 5.121094
-1.862281 1.282227 5.128906
-1.834542 1.284180 5.136719
-1.808082 1.287109 5.148438
-1.780134 1.289062 5.156250
-1.752093 1.291016 5.164062
-1.723958 1.292969 5.171875
-1.695731 1.294922 5.179688
-1.667411 1.296875 5.187500
-1.640230 1.299805 5.199219
-1.611700 1.301758 5.207031
-1.583078 1.303711 5.214844
-1.554362 1.305664 5.222656
-1.525553 1.307617 5.230469
-1.503348 1.315430 5.261719
-1.477493 1.320312 5.281250
-1.457822 1.331055 5.324219
-1.453334 1.356445 5.425781
-1.450707 1.384766 5.539062
-1.438732 1.405273 5.621094
-1.418945 1.418945 5.675781
-1.398507 1.432617 5.730469
-1.387649 1.457031 5.828125
-1.382882 1.489258 5.957031
-1.380999 1.526367 6.105469
-1.367025 1.551758 6.207031
-1.333426 1.555664 6.222656
-1.328939 1.594727 6.378906
-1.919457 2.371094 9.484375
-1.375767 1.750977 7.003906
-1.346726 1.767578 7.070312
-1.748651 2.369141 9.476562
-1.692243 2.369141 9.476562
-1.637184 2.371094 9.484375
-1.584635 2.376953 9.507812
-1.550642 2.412109 9.648438
-1.493211 2.412109 9.648438
-1.435779 2.412109 9.648438
-1.378348 2.412109 9.648438
-1.320917 2.412109 9.648438
-1.263486 2.412109 9.648438
-1.206055 2.412109 9.648438
-1.148623 2.412109 9.648438
-1.091192 2.412109 9.648438
-1.034598 2.414062 9.656250
-0.977121 2.414062 9.656250
-0.919643 2.414062 9.656250
-0.862165 2.414062 9.656250
-0.804688 2.414062 9.656250
-0.747210 2.414062 9.656250
-0.689732 2.414062 9.656250
-0.632254 2.414062 9.656250
-0.574777 2.414062 9.656250
-0.517299 2.414062 9.656250
-0.459821 2.414062 9.656250
-0.402344 2.414062 9.656250
-0.344866 2.414062 9.656250
-0.287388 2.414062 9.656250
-0.229911 2.414062 9.656250
-0.172433 2.414062 9.656250
-0.114955 2.414062 9.656250
-0.057478 2.414062 9.656250
0.000000 2.414062 9.656250
0.057478 2.414062 9.656250
0.114955 2.414062 9.656250
0.172433 2.414062 9.656250
0.229911 2.414062 9.656250
0.287388 2.414062 9.656250
0.344866 2.414062 9.656250
0.402344 2.414062 9.656250
0.459821 2.414062 9.656250
0.517299 2.414062 9.656250
0.574777 2.414062 9.656250
0.632254 2.414062 9.656250
0.689732 2.414062 9.656250
0.747210 2.414062 9.656250
0.804688 2.414062 9.656250
0.862165 2.414062 9.656250
0.919643 2.414062 9.656250
0.977121 2.414062 9.656250
1.034598 2.414062 9.656250
1.092076 2.414062 9.656250
1.149554 2.414062 9.656250
1.207031 2.414062 9.656250
1.264509 2.414062 9.656250
1.321987 2.414062 9.656250
1.379464 2.414062 9.656250
1.436942 2.414062 9.656250
1.494420 2.414062 9.656250
1.551897 2.414062 9.656250
1.609375 2.414062 9.656250
1.666853 2.414062 9.656250
1.724330 2.414062 9.656250
1.781808 2.414062 9.656250
1.839286 2.414062 9.656250
1.896763 2.414062 9.656250
1.954241 2.414062 9.656250
2.011719 2.414062 9.656250
2.069196 2.414062 9.656250
2.126674 2.414062 9.656250
2.184152 2.414062 9.656250
2.241629 2.414062 9.656250
2.299107 2.414062 9.656250
2.356585 2.414062 9.656250
2.414062 2.414062 9.656250
2.471540 2.414062 9.656250
2.529018 2.414062 9.656250
2.586496 2.414062 9.656250
2.643973 2.414062 9.656250
2.701451 2.414062 9.656250
2.758929 2.414062 9.656250
2.816406 2.414062 9.656250
2.873884 2.414062 9.656250
2.931362 2.414062 9.656250
2.988839 2.414062 9.656250
3.046317 2.414062 9.656250
3.103795 2.414062 9.656250
3.161272 2.414062 9.656250
3.218750 2.414062 9.656250
3.276228 2.414062 9.656250
3.333705 2.414062 9.656250
3.391183 2.414062 9.656250
3.448661 2.414062 9.656250
3.506138 2.414062 9.656250
3.563616 2.414062 9.656250
3.621094 2.414062 9.656250
3.678571 2.414062 9.656250
3.736049 2.414062 9.656250
3.793527 2.414062 9.656250
3.851004 2.414062 9.656250
3.908482 2.414062 9.656250
3.965960 2.414062 9.656250
4.023438 2.414062 9.656250
4.080915 2.414062 9.656250
4.138393 2.414062 9.656250
4.195870 2.414062 9.656250
4.253348 2.414062 9.656250
4.310826 2.414062 9.656250
4.368304 2.414062 9.656250
4.425781 2.414062 9.656250
4.483259 2.414062 9.656250
4.540737 2.414062 9.656250
4.598214 2.414062 9.656250
4.655692 2.414062 9.656250
4.713170 2.414062 9.656250
4.770648 2.414062 9.656250
4.828125 2.414062 9.656250
4.885602 2.414062 9.656250
4.943080 2.414062 9.656250
5.000558 2.414062 9.656250
5.058036 2.414062 9.656250
5.115513 2.414062 9.656250
5.172991 2.414062 9.656250
5.230469 2.414062 9.656250
5.287946 2.414062 9.656250
5.345424 2.414062 9.656250
5.402902 2.414062 9.656250
5.460380 2.414062 9.656250
5.517857 2.414062 9.656250
5.575335 2.414062 9.656250
5.632812 2.414062 9.656250
5.690290 2.414062 9.656250
5.747768 2.414062 9.656250
5.805245 2.414062 9.656250
5.862723 2.414062 9.656250
5.920201 2.414062 9.656250
5.977679 2.414062 9.656250
6.035156 2.414062 9.656250
6.092634 2.414062 9.656250
6.150112 2.414062 9.656250
6.207589 2.414062 9.656250
6.265067 2.414062 9.656250
6.322545 2.414062 9.656250
6.380023 2.414062 9.656250
6.437500 2.414062 9.656250
6.494977 2.414062 9.656250
6.552455 2.414062 9.656250
6.609933 2.414062 9.656250
6.667411 2.414062 9.656250
6.724888 2.414062 9.656250
6.782366 2.414062 9.656250
6.839844 2.414062 9.656250
6.897321 2.414062 9.656250
6.954799 2.414062 9.656250
7.012277 2.414062 9.656250
7.069755 2.414062 9.656250
7.127232 2.414062 9.656250
7.184710 2.414062 9.656250
7.242188 2.414062 9.656250
7.299665 2.414062 9.656250
7.357143 2.414062 9.656250
7.414620 2.414062 9.656250
7.472098 2.414062 9.656250
7.529576 2.414062 9.656250
7.587054 2.414062 9.656250
7.644531 2.414062 9.656250
7.702009 2.414062 9.656250
7.759487 2.414062 9.656250
7.816964 2.414062 9.656250
7.874442 2.414062 9.656250
7.931920 2.414062 9.656250
7.989398 2.414062 9.656250
8.046875 2.414062 9.656250
8.104353 2.414062 9.656250
8.161830 2.414062 9.656250
8.219308 2.414062 9.656250
8.276786 2.414062 9.656250
8.334264 2.414062 9.656250
8.391741 2.414062 9.656250
8.449219 2.414062 9.656250
8.506697 2.414062 9.656250
8.564174 2.414062 9.656250
8.621652 2.414062 9.656250
8.679130 2.414062 9.656250
8.736608 2.414062 9.656250
8.794085 2.414062 9.656250
8.851562 2.414062 9.656250
8.909040 2.414062 9.656250
8.966517 2.414062 9.656250
9.023995 2.414062 9.656250
9.081473 2.414062 9.656250
9.138951 2.414062 9.656250
9.196428 2.414062 9.656250
9.253906 2.414062 9.656250
9.311384 2.414062 9.656250
9.368861 2.414062 9.656250
9.426339 2.414062 9.656250
9.483817 2.414062 9.656250
9.541295 2.414062 9.656250
9.598772 2.414062 9.656250
-3.554688 0.909831 3.554688
-3.552944 0.914830 3.574219
-3.552897 0.920329 3.595703
-3.552595 0.925828 3.617188
-3.552037 0.931327 3.638672
-3.551223 0.936826 3.660156
-3.550153 0.942325 3.681641
-3.550700 0.948324 3.705078
-3.549107 0.953823 3.726562
-3.549107 0.959821 3.750000
-3.548828 0.965820 3.773438
-3.548270 0.971819 3.796875
-3.547433 0.977818 3.820312
-3.546317 0.983817 3.843750
-3.546712 0.990316 3.869141
-3.545027 0.996315 3.892578
-3.544829 1.002813 3.917969
-3.544329 1.009312 3.943359
-3.543527 1.015811 3.968750
-3.542422 1.022310 3.994141
-3.541016 1.028809 4.019531
-3.541016 1.035807 4.046875
-3.540690 1.042806 4.074219
-3.540039 1.049805 4.101562
-3.539062 1.056803 4.128906
-3.537760 1.063802 4.156250
-3.536133 1.070801 4.183594
-3.537458 1.078799 4.214844
-3.535156 1.085798 4.242188
-3.535761 1.093796 4.273438
-3.532785 1.100795 4.300781
-3.532668 1.108794 4.332031
-3.532180 1.116792 4.363281
-3.317871 1.056803 4.128906
-3.277716 1.051804 4.109375
-3.237793 1.046805 4.089844
-3.216518 1.047805 4.093750
-3.198242 1.049805 4.101562
-3.179873 1.051804 4.109375
-3.161412 1.053804 4.117188
-3.145833 1.056803 4.128906
-3.136021 1.061803 4.148438
-3.125977 1.066802 4.167969
-3.115699 1.071801 4.187500
-3.113839 1.079799 4.218750
-3.111607 1.087798 4.250000
-3.111840 1.096796 4.285156
-3.108840 1.104795 4.316406
-3.105469 1.112793 4.347656
-3.104492 1.121791 4.382812
-3.103097 1.130790 4.417969
-3.098563 1.138788 4.449219
-3.096354 1.147786 4.484375
-3.096401 1.157785 4.523438
-3.093332 1.166783 4.558594
-3.089844 1.175781 4.593750
-3.088542 1.185779 4.632812
-3.084194 1.194778 4.667969
-3.081985 1.204776 4.707031
-3.079311 1.214774 4.746094
-3.076172 1.224772 4.785156
-3.075056 1.235770 4.828125
-3.070964 1.245768 4.867188
-3.068848 1.256766 4.910156
-3.066220 1.267764 4.953125
-3.060686 1.277762 4.992188
-3.054688 1.287760 5.031250
-3.052920 1.299758 5.078125
-3.052920 1.312756 5.128906
-3.015486 1.309756 5.117188
-2.973633 1.304757 5.097656
-2.941034 1.303757 5.093750
-2.906250 1.301758 5.085938
-2.873768 1.300758 5.082031
-2.841332 1.299758 5.078125
-2.808943 1.298758 5.074219
-2.776600 1.297759 5.070312
-2.744303 1.296759 5.066406
-2.712054 1.295759 5.062500
-2.677781 1.293759 5.054688
-2.645647 1.292760 5.050781
-2.613560 1.291760 5.046875
-2.581520 1.290760 5.042969
-2.549526 1.289760 5.039062
-2.517578 1.288760 5.035156
-2.483747 1.286761 5.027344
-2.451916 1.285761 5.023438
-2.420131 1.284761 5.019531
-2.388393 1.283761 5.015625
-2.356701 1.282761 5.011719
-2.325056 1.281762 5.007812
-2.293457 1.280762 5.003906
-2.261905 1.279762 5.000000
-2.228655 1.277762 4.992188
-2.197219 1.276762 4.988281
-2.165830 1.275763 4.984375
-2.134487 1.274763 4.980469
-2.103190 1.273763 4.976562
-2.071940 1.272763 4.972656
-2.040737 1.271763 4.968750
-2.009580 1.270764 4.964844
-1.983143 1.272763 4.972656
-1.956613 1.274763 4.980469
-1.931501 1.277762 4.992188
-1.904762 1.279762 5.000000
-1.877930 1.281762 5.007812
-1.851004 1.283761 5.015625
-1.823986 1.285761 5.023438
-1.796875 1.287760 5.031250
-1.769671 1.289760 5.039062
-1.742373 1.291760 5.046875
-1.714983 1.293759 5.054688
-1.687500 1.295759 5.062500
-1.659924 1.297759 5.070312
-1.632254 1.299758 5.078125
-1.604492 1.301758 5.085938
-1.576637 1.303757 5.093750
-1.549874 1.306757 5.105469
-1.522972 1.309756 5.117188
-1.500488 1.316755 5.144531
-1.474330 1.320754 5.160156
-1.460007 1.335752 5.218750
-1.456752 1.361747 5.320312
-1.453334 1.388742 5.425781
-1.439453 1.406738 5.496094
-1.420736 1.420736 5.550781
-1.400391 1.433733 5.601562
-1.389928 1.457729 5.695312
-1.386719 1.490723 5.824219
-1.384696 1.526716 5.964844
-1.370396 1.550712 6.058594
-1.336914 1.553711 6.070312
-1.333426 1.592704 6.222656
-1.964518 2.413551 9.429688
-1.383464 1.749674 6.835938
-1.353516 1.763672 6.890625
-1.347470 1.810663 7.074219
-1.740002 2.413551 9.429688
-1.683873 2.413551 9.429688
-1.627744 2.413551 9.429688
-1.571615 2.413551 9.429688
-1.515486 2.413551 9.429688
-1.459356 2.413551 9.429688
-1.403227 2.413551 9.429688
-1.347098 2.413551 9.429688
-1.290969 2.413551 9.429688
-1.234840 2.413551 9.429688
-1.178711 2.413551 9.429688
-1.122582 2.413551 9.429688
-1.066453 2.413551 9.429688
-1.010324 2.413551 9.429688
-0.954195 2.413551 9.429688
-0.898065 2.413551 9.429688
-0.841936 2.413551 9.429688
-0.785807 2.413551 9.429688
-0.729678 2.413551 9.429688
-0.673549 2.413551 9.429688
-0.617420 2.413551 9.429688
-0.561291 2.413551 9.429688
-0.505162 2.413551 9.429688
-0.449033 2.413551 9.429688
-0.392904 2.413551 9.429688
-0.336775 2.413551 9.429688
-0.280645 2.413551 9.429688
-0.224516 2.413551 9.429688
-0.168387 2.413551 9.429688
-0.112258 2.413551 9.429688
-0.056129 2.413551 9.429688
0.000000 2.413551 9.429688
0.056129 2.413551 9.429688
0.112258 2.413551 9.429688
0.168387 2.413551 9.429688
0.224516 2.413551 9.429688
0.280645 2.413551 9.429688
0.336775 2.413551 9.429688
0.392904 2.413551 9.429688
0.449033 2.413551 9.429688
0.505162 2.413551 9.429688
0.561291 2.413551 9.429688
0.617420 2.413551 9.429688
0.673549 2.413551 9.429688
0.729678 2.413551 9.429688
0.785807 2.413551 9.429688
0.841936 2.413551 9.429688
0.898065 2.413551 9.429688
0.954195 2.413551 9.429688
1.010324 2.413551 9.429688
1.066453 2.413551 9.429688
1.122582 2.413551 9.429688
1.178711 2.413551 9.429688
1.234840 2.413551 9.429688
1.290969 2.413551 9.429688
1.347098 2.413551 9.429688
1.403227 2.413551 9.429688
1.459356 2.413551 9.429688
1.515486 2.413551 9.429688
1.571615 2.413551 9.429688
1.627744 2.413551 9.429688
1.683873 2.413551 9.429688
1.740002 2.413551 9.429688
1.796131 2.413551 9.429688
1.852260 2.413551 9.429688
1.908389 2.413551 9.429688
1.964518 2.413551 9.429688
2.020647 2.413551 9.429688
2.076777 2.413551 9.429688
2.132905 2.413551 9.429688
2.189035 2.413551 9.429688
2.245164 2.413551 9.429688
2.301293 2.413551 9.429688
2.357422 2.413551 9.429688
2.413551 2.413551 9.429688
2.469680 2.413551 9.429688
2.525809 2.413551 9.429688
2.581938 2.413551 9.429688
2.638067 2.413551 9.429688
2.694196 2.413551 9.429688
2.750325 2.413551 9.429688
2.806455 2.413551 9.429688
2.862584 2.413551 9.429688
2.918713 2.413551 9.429688
2.974842 2.413551 9.429688
3.030971 2.413551 9.429688
3.087100 2.413551 9.429688
3.143229 2.413551 9.429688
3.199358 2.413551 9.429688
3.255487 2.413551 9.429688
3.311616 2.413551 9.429688
3.367746 2.413551 9.429688
3.423875 2.413551 9.429688
3.480004 2.413551 9.429688
3.536133 2.413551 9.429688
3.592262 2.413551 9.429688
3.648391 2.413551 9.429688
3.704520 2.413551 9.429688
3.760649 2.413551 9.429688
3.816778 2.413551 9.429688
3.872907 2.413551 9.429688
3.929036 2.413551 9.429688
3.985166 2.413551 9.429688
4.041295 2.413551 9.429688
4.097424 2.413551 9.429688
4.153553 2.413551 9.429688
4.209682 2.413551 9.429688
4.265811 2.413551 9.429688
4.321940 2.413551 9.429688
4.378069 2.413551 9.429688
4.434198 2.413551 9.429688
4.490327 2.413551 9.429688
4.546456 2.413551 9.429688
4.602586 2.413551 9.429688
4.658715 2.413551 9.429688
4.714844 2.413551 9.429688
4.770973 2.413551 9.429688
4.827102 2.413551 9.429688
4.883231 2.413551 9.429688
4.939360 2.413551 9.429688
4.995489 2.413551 9.429688
5.051618 2.413551 9.429688
5.107748 2.413551 9.429688
5.163877 2.413551 9.429688
5.220006 2.413551 9.429688
5.276134 2.413551 9.429688
5.332264 2.413551 9.429688
5.388393 2.413551 9.429688
5.444522 2.413551 9.429688
5.500651 2.413551 9.429688
5.556780 2.413551 9.429688
5.612909 2.413551 9.429688
5.669038 2.413551 9.429688
5.725167 2.413551 9.429688
5.781297 2.413551 9.429688
5.837426 2.413551 9.429688
5.893555 2.413551 9.429688
5.949684 2.413551 9.429688
6.005813 2.413551 9.429688
6.061942 2.413551 9.429688
6.118071 2.413551 9.429688
6.174200 2.413551 9.429688
6.230329 2.413551 9.429688
6.286458 2.413551 9.429688
6.342587 2.413551 9.429688
6.398716 2.413551 9.429688
6.454845 2.413551 9.429688
6.510975 2.413551 9.429688
6.567104 2.413551 9.429688
6.623233 2.413551 9.429688
6.679362 2.413551 9.429688
6.735491 2.413551 9.429688
6.791620 2.413551 9.429688
6.847749 2.413551 9.429688
6.903878 2.413551 9.429688
6.960008 2.413551 9.429688
7.016137 2.413551 9.429688
7.072266 2.413551 9.429688
7.128395 2.413551 9.429688
7.184524 2.413551 9.429688
7.240653 2.413551 9.429688
7.296782 2.413551 9.429688
7.352911 2.413551 9.429688
7.409040 2.413551 9.429688
7.465169 2.413551 9.429688
7.521298 2.413551 9.429688
7.577427 2.413551 9.429688
7.633556 2.413551 9.429688
7.689686 2.413551 9.429688
7.745815 2.413551 9.429688
7.801944 2.413551 9.429688
7.858073 2.413551 9.429688
7.914202 2.413551 9.429688
7.970331 2.413551 9.429688
8.026461 2.413551 9.429688
8.082589 2.413551 9.429688
8.138719 2.413551 9.429688
8.194847 2.413551 9.429688
8.250977 2.413551 9.429688
8.307106 2.413551 9.429688
8.363235 2.413551 9.429688
8.419364 2.413551 9.429688
8.475492 2.413551 9.429688
8.531622 2.413551 9.429688
8.587751 2.413551 9.429688
8.643880 2.413551 9.429688
8.700009 2.413551 9.429688
8.756139 2.413551 9.429688
8.812267 2.413551 9.429688
8.868397 2.413551 9.429688
8.924525 2.413551 9.429688
8.980655 2.413551 9.429688
9.036784 2.413551 9.429688
9.092913 2.413551 9.429688
9.149042 2.413551 9.429688
9.205172 2.413551 9.429688
9.261300 2.413551 9.429688
9.317430 2.413551 9.429688
9.373558 2.413551 9.429688
-3.554688 0.930990 3.554688
-3.552944 0.936105 3.574219
-3.552897 0.941732 3.595703
-3.552595 0.947359 3.617188
-3.552037 0.952985 3.638672
-3.551223 0.958612 3.660156
-3.550153 0.964239 3.681641
-3.550700 0.970378 3.705078
-3.549107 0.976004 3.726562
-3.549107 0.982143 3.750000
-3.548828 0.988281 3.773438
-3.548270 0.994420 3.796875
-3.547433 1.000558 3.820312
-3.546317 1.006696 3.843750
-3.546712 1.013346 3.869141
-3.545027 1.019485 3.892578
-3.544829 1.026135 3.917969
-3.544329 1.032785 3.943359
-3.543527 1.039435 3.968750
-3.542422 1.046084 3.994141
-3.541016 1.052734 4.019531
-3.541016 1.059896 4.046875
-3.540690 1.067057 4.074219
-3.540039 1.074219 4.101562
-3.539062 1.081380 4.128906
-3.537760 1.088542 4.156250
-3.536133 1.095703 4.183594
-3.537458 1.103888 4.214844
-3.535156 1.111049 4.242188
-3.535761 1.119234 4.273438
-3.532785 1.126395 4.300781
-3.532668 1.134580 4.332031
-3.532180 1.142764 4.363281
-3.321010 1.082403 4.132812
-3.277716 1.076265 4.109375
-3.237793 1.071150 4.089844
-3.216518 1.072173 4.093750
-3.198242 1.074219 4.101562
-3.179873 1.076265 4.109375
-3.161412 1.078311 4.117188
-3.145833 1.081380 4.128906
-3.133068 1.085472 4.144531
-3.123047 1.090588 4.164062
-3.115699 1.096726 4.187500
-3.110956 1.103888 4.214844
-3.108747 1.112072 4.246094
-3.109003 1.121280 4.281250
-3.106027 1.129464 4.312500
-3.102679 1.137649 4.343750
-3.101725 1.146856 4.378906
-3.100353 1.156064 4.414062
-3.095843 1.164248 4.445312
-3.093657 1.173456 4.480469
-3.091053 1.182664 4.515625
-3.090681 1.192894 4.554688
-3.087216 1.202102 4.589844
-3.085938 1.212333 4.628906
-3.081613 1.221540 4.664062
-3.079427 1.231771 4.703125
-3.076777 1.242002 4.742188
-3.073661 1.252232 4.781250
-3.070080 1.262463 4.820312
-3.068499 1.273717 4.863281
-3.063965 1.283947 4.902344
-3.061384 1.295201 4.945312
-3.058291 1.306455 4.988281
-3.049944 1.315662 5.023438
-2.996559 1.305432 4.984375
-2.964565 1.304408 4.980469
-2.930315 1.302362 4.972656
-2.898438 1.301339 4.968750
-2.866606 1.300316 4.964844
-2.834821 1.299293 4.960938
-2.803083 1.298270 4.957031
-2.771391 1.297247 4.953125
-2.739746 1.296224 4.949219
-2.708147 1.295201 4.945312
-2.676595 1.294178 4.941406
-2.642997 1.292132 4.933594
-2.611561 1.291109 4.929688
-2.580171 1.290086 4.925781
-2.548828 1.289062 4.921875
-2.517532 1.288039 4.917969
-2.486282 1.287016 4.914062
-2.455078 1.285993 4.910156
-2.423921 1.284970 4.906250
-2.392811 1.283947 4.902344
-2.361747 1.282924 4.898438
-2.330729 1.281901 4.894531
-2.297921 1.279855 4.886719
-2.267020 1.278832 4.882812
-2.236165 1.277809 4.878906
-2.205357 1.276786 4.875000
-2.174595 1.275763 4.871094
-2.143880 1.274740 4.867188
-2.113211 1.273717 4.863281
-2.082589 1.272693 4.859375
-2.052014 1.271670 4.855469
-2.021484 1.270647 4.851562
-1.995815 1.272693 4.859375
-1.970052 1.274740 4.867188
-1.944196 1.276786 4.875000
-1.916713 1.277809 4.878906
-1.890695 1.279855 4.886719
-1.864583 1.281901 4.894531
-1.838379 1.283947 4.902344
-1.812081 1.285993 4.910156
-1.785691 1.288039 4.917969
-1.759208 1.290086 4.925781
-1.732631 1.292132 4.933594
-1.705962 1.294178 4.941406
-1.679199 1.296224 4.949219
-1.652344 1.298270 4.957031
-1.625395 1.300316 4.964844
-1.598354 1.302362 4.972656
-1.571219 1.304408 4.980469
-1.543992 1.306455 4.988281
-1.520229 1.311570 5.007812
-1.496233 1.316685 5.027344
-1.470866 1.320778 5.042969
-1.463170 1.341239 5.121094
-1.458915 1.365792 5.214844
-1.456752 1.393415 5.320312
-1.440778 1.408761 5.378906
-1.422061 1.422061 5.429688
-1.402739 1.435361 5.480469
-1.393555 1.459914 5.574219
-1.389928 1.491629 5.695312
-1.387649 1.526414 5.828125
-1.374721 1.550967 5.921875
-1.342122 1.554036 5.933594
-1.336914 1.589844 6.070312
-1.362723 1.665551 6.359375
-1.391602 1.749442 6.679688
-1.359747 1.759673 6.718750
-1.347377 1.796503 6.859375
-1.754464 2.412388 9.210938
-1.699637 2.412388 9.210938
-1.644810 2.412388 9.210938
-1.589983 2.412388 9.210938
-1.535156 2.412388 9.210938
-1.480329 2.412388 9.210938
-1.425502 2.412388 9.210938
-1.370675 2.412388 9.210938
-1.315848 2.412388 9.210938
-1.261021 2.412388 9.210938
-1.206194 2.412388 9.210938
-1.151367 2.412388 9.210938
-1.096540 2.412388 9.210938
-1.041713 2.412388 9.210938
-0.986886 2.412388 9.210938
-0.932059 2.412388 9.210938
-0.877232 2.412388 9.210938
-0.822405 2.412388 9.210938
-0.767578 2.412388 9.210938
-0.712751 2.412388 9.210938
-0.657924 2.412388 9.210938
-0.603097 2.412388 9.210938
-0.548270 2.412388 9.210938
-0.493443 2.412388 9.210938
-0.438616 2.412388 9.210938
-0.383789 2.412388 9.210938
-0.328962 2.412388 9.210938
-0.274135 2.412388 9.210938
-0.219308 2.412388 9.210938
-0.164481 2.412388 9.210938
-0.109654 2.412388 9.210938
-0.054827 2.412388 9.210938
0.000000 2.412388 9.210938
0.054827 2.412388 9.210938
0.109654 2.412388 9.210938
0.164481 2.412388 9.210938
0.219308 2.412388 9.210938
0.274135 2.412388 9.210938
0.328962 2.412388 9.210938
0.383789 2.412388 9.210938
0.438616 2.412388 9.210938
0.493443 2.412388 9.210938
0.548270 2.412388 9.210938
0.603097 2.412388 9.210938
0.657924 2.412388 9.210938
0.712751 2.412388 9.210938
0.767578 2.412388 9.210938
0.822405 2.412388 9.210938
0.877232 2.412388 9.210938
0.932059 2.412388 9.210938
0.986886 2.412388 9.210938
1.041713 2.412388 9.210938
1.096540 2.412388 9.210938
1.151367 2.412388 9.210938
1.206194 2.412388 9.210938
1.261021 2.412388 9.210938
1.315848 2.412388 9.210938
1.370675 2.412388 9.210938
1.425502 2.412388 9.210938
1.480329 2.412388 9.210938
1.535156 2.412388 9.210938
1.589983 2.412388 9.210938
1.644810 2.412388 9.210938
1.699637 2.412388 9.210938
1.754464 2.412388 9.210938
1.809291 2.412388 9.210938
1.864118 2.412388 9.210938
1.918945 2.412388 9.210938
1.973772 2.412388 9.210938
2.028599 2.412388 9.210938
2.083426 2.412388 9.210938
2.138253 2.412388 9.210938
2.193080 2.412388 9.210938
2.247907 2.412388 9.210938
2.302734 2.412388 9.210938
2.357561 2.412388 9.210938
2.412388 2.412388 9.210938
2.467215 2.412388 9.210938
2.522043 2.412388 9.210938
2.576869 2.412388 9.210938
2.631696 2.412388 9.210938
2.686523 2.412388 9.210938
2.741350 2.412388 9.210938
2.796177 2.412388 9.210938
2.851004 2.412388 9.210938
2.905832 2.412388 9.210938
2.960659 2.412388 9.210938
3.015486 2.412388 9.210938
3.070312 2.412388 9.210938
3.125139 2.412388 9.210938
3.179966 2.412388 9.210938
3.234793 2.412388 9.210938
3.289621 2.412388 9.210938
3.344448 2.412388 9.210938
3.399275 2.412388 9.210938
3.454102 2.412388 9.210938
3.508929 2.412388 9.210938
3.563756 2.412388 9.210938
3.618582 2.412388 9.210938
3.673410 2.412388 9.210938
3.728237 2.412388 9.210938
3.783064 2.412388 9.210938
3.837891 2.412388 9.210938
3.892718 2.412388 9.210938
3.947545 2.412388 9.210938
4.002372 2.412388 9.210938
4.057199 2.412388 9.210938
4.112026 2.412388 9.210938
4.166852 2.412388 9.210938
4.221680 2.412388 9.210938
4.276507 2.412388 9.210938
4.331334 2.412388 9.210938
4.386161 2.412388 9.210938
4.440988 2.412388 9.210938
4.495815 2.412388 9.210938
4.550642 2.412388 9.210938
4.605469 2.412388 9.210938
4.660296 2.412388 9.210938
4.715123 2.412388 9.210938
4.769950 2.412388 9.210938
4.824777 2.412388 9.210938
4.879604 2.412388 9.210938
4.934431 2.412388 9.210938
4.989258 2.412388 9.210938
5.044085 2.412388 9.210938
5.098912 2.412388 9.210938
5.153739 2.412388 9.210938
5.208566 2.412388 9.210938
5.263393 2.412388 9.210938
5.318220 2.412388 9.210938
5.373047 2.412388 9.210938
5.427874 2.412388 9.210938
5.482701 2.412388 9.210938
5.537528 2.412388 9.210938
5.592355 2.412388 9.210938
5.647182 2.412388 9.210938
5.702009 2.412388 9.210938
5.756836 2.412388 9.210938
5.811663 2.412388 9.210938
5.866490 2.412388 9.210938
5.921317 2.412388 9.210938
5.976144 2.412388 9.210938
6.030971 2.412388 9.210938
6.085798 2.412388 9.210938
6.140625 2.412388 9.210938
6.195452 2.412388 9.210938
6.250279 2.412388 9.210938
6.305106 2.412388 9.210938
6.359933 2.412388 9.210938
6.414760 2.412388 9.210938
6.469587 2.412388 9.210938
6.524414 2.412388 9.210938
6.579241 2.412388 9.210938
6.634068 2.412388 9.210938
6.688895 2.412388 9.210938
6.743722 2.412388 9.210938
6.798549 2.412388 9.210938
6.853376 2.412388 9.210938
6.908203 2.412388 9.210938
6.963030 2.412388 9.210938
7.017857 2.412388 9.210938
7.072684 2.412388 9.210938
7.127511 2.412388 9.210938
7.182338 2.412388 9.210938
7.237165 2.412388 9.210938
7.291992 2.412388 9.210938
7.346819 2.412388 9.210938
7.401646 2.412388 9.210938
7.456473 2.412388 9.210938
7.511300 2.412388 9.210938
7.566127 2.412388 9.210938
7.620954 2.412388 9.210938
7.675781 2.412388 9.210938
7.730608 2.412388 9.210938
7.785435 2.412388 9.210938
7.840262 2.412388 9.210938
7.895089 2.412388 9.210938
7.949916 2.412388 9.210938
8.004744 2.412388 9.210938
8.059570 2.412388 9.210938
8.114397 2.412388 9.210938
8.169225 2.412388 9.210938
8.224051 2.412388 9.210938
8.278878 2.412388 9.210938
8.333705 2.412388 9.210938
8.388533 2.412388 9.210938
8.443359 2.412388 9.210938
8.498186 2.412388 9.210938
8.553014 2.412388 9.210938
8.607841 2.412388 9.210938
8.662667 2.412388 9.210938
8.717494 2.412388 9.210938
8.772322 2.412388 9.210938
8.827148 2.412388 9.210938
8.881975 2.412388 9.210938
8.936803 2.412388 9.210938
8.991630 2.412388 9.210938
9.046456 2.412388 9.210938
9.101283 2.412388 9.210938
9.156111 2.412388 9.210938
-3.554688 0.952148 3.554688
-3.552944 0.957380 3.574219
-3.552897 0.963135 3.595703
-3.552595 0.968890 3.617188
-3.552037 0.974644 3.638672
-3.551223 0.980399 3.660156
-3.550153 0.986154 3.681641
-3.550700 0.992432 3.705078
-3.549107 0.998186 3.726562
-3.549107 1.004464 3.750000
-3.548828 1.010742 3.773438
-3.548270 1.017020 3.796875
-3.547433 1.023298 3.820312
-3.546317 1.029576 3.843750
-3.546712 1.036377 3.869141
-3.545027 1.042655 3.892578
-3.544829 1.049456 3.917969
-3.544329 1.056257 3.943359
-3.543527 1.063058 3.968750
-3.542422 1.069859 3.994141
-3.541016 1.076660 4.019531
-3.541016 1.083984 4.046875
-3.540690 1.091309 4.074219
-3.540039 1.098633 4.101562
-3.539062 1.105957 4.128906
-3.537760 1.113281 4.156250
-3.536133 1.120605 4.183594
-3.537458 1.128976 4.214844
-3.535156 1.136300 4.242188
-3.535761 1.144671 4.273438
-3.532785 1.151995 4.300781
-3.532668 1.160365 4.332031
-3.532180 1.168736 4.363281
-3.324149 1.108050 4.136719
-3.280832 1.101772 4.113281
-3.237793 1.095494 4.089844
-3.216518 1.096540 4.093750
-3.198242 1.098633 4.101562
-3.179873 1.100725 4.109375
-3.161412 1.102818 4.117188
-3.142857 1.104911 4.125000
-3.130115 1.109096 4.140625
-3.123047 1.115374 4.164062
-3.112793 1.120605 4.183594
-3.108073 1.127930 4.210938
-3.105887 1.136300 4.242188
-3.106166 1.145717 4.277344
-3.103213 1.154088 4.308594
-3.099888 1.162458 4.339844
-3.098958 1.171875 4.375000
-3.094866 1.180246 4.406250
-3.093122 1.189662 4.441406
-3.090960 1.199079 4.476562
-3.088379 1.208496 4.511719
-3.085379 1.217913 4.546875
-3.084589 1.228376 4.585938
-3.080729 1.237793 4.621094
-3.079032 1.248256 4.660156
-3.076869 1.258719 4.699219
-3.071707 1.268136 4.734375
-3.068638 1.278599 4.773438
-3.067592 1.290109 4.816406
-3.063570 1.300572 4.855469
-3.061523 1.312081 4.898438
-3.029948 1.311035 4.894531
-2.986444 1.304757 4.871094
-2.955078 1.303711 4.867188
-2.923758 1.302665 4.863281
-2.890160 1.300572 4.855469
-2.858957 1.299526 4.851562
-2.827800 1.298479 4.847656
-2.796689 1.297433 4.843750
-2.765625 1.296387 4.839844
-2.734607 1.295340 4.835938
-2.703637 1.294294 4.832031
-2.672712 1.293248 4.828125
-2.641834 1.292201 4.824219
-2.611003 1.291155 4.820312
-2.580218 1.290109 4.816406
-2.549479 1.289062 4.812500
-2.518787 1.288016 4.808594
-2.488142 1.286970 4.804688
-2.457543 1.285924 4.800781
-2.426990 1.284877 4.796875
-2.396484 1.283831 4.792969
-2.366025 1.282785 4.789062
-2.335612 1.281738 4.785156
-2.305246 1.280692 4.781250
-2.274926 1.279646 4.777344
-2.244652 1.278599 4.773438
-2.214425 1.277553 4.769531
-2.182454 1.275460 4.761719
-2.152344 1.274414 4.757812
-2.122280 1.273368 4.753906
-2.092262 1.272321 4.750000
-2.062291 1.271275 4.746094
-2.032366 1.270229 4.742188
-2.005790 1.271275 4.746094
-1.980794 1.273368 4.753906
-1.955706 1.275460 4.761719
-1.930525 1.277553 4.769531
-1.905250 1.279646 4.777344
-1.879883 1.281738 4.785156
-1.852911 1.282785 4.789062
-1.827381 1.284877 4.796875
-1.801758 1.286970 4.804688
-1.776042 1.289062 4.812500
-1.750232 1.291155 4.820312
-1.724330 1.293248 4.828125
-1.698335 1.295340 4.835938
-1.672247 1.297433 4.843750
-1.646066 1.299526 4.851562
-1.618490 1.300572 4.855469
-1.592146 1.302665 4.863281
-1.565709 1.304757 4.871094
-1.539179 1.306850 4.878906
-1.517392 1.313128 4.902344
-1.491769 1.316267 4.914062
-1.468331 1.321498 4.933594
-1.465169 1.345564 5.023438
-1.462054 1.370675 5.117188
-1.458915 1.396833 5.214844
-1.441778 1.410435 5.265625
-1.422991 1.422991 5.312500
-1.404669 1.436593 5.363281
-1.395740 1.460658 5.453125
-1.393555 1.493094 5.574219
-1.390881 1.526576 5.699219
-1.378348 1.550642 5.789062
-1.346610 1.553781 5.800781
-1.341239 1.588309 5.929688
-1.394554 1.696080 6.332031
-1.362723 1.703404 6.359375
-1.367188 1.757812 6.562500
-1.349470 1.786063 6.667969
-1.769392 2.412807 9.007812
-1.715774 2.412807 9.007812
-1.662156 2.412807 9.007812
-1.608538 2.412807 9.007812
-1.554920 2.412807 9.007812
-1.501302 2.412807 9.007812
-1.447684 2.412807 9.007812
-1.394066 2.412807 9.007812
-1.340448 2.412807 9.007812
-1.286830 2.412807 9.007812
-1.233212 2.412807 9.007812
-1.179595 2.412807 9.007812
-1.125977 2.412807 9.007812
-1.072359 2.412807 9.007812
-1.018741 2.412807 9.007812
-0.965123 2.412807 9.007812
-0.911505 2.412807 9.007812
-0.857887 2.412807 9.007812
-0.804269 2.412807 9.007812
-0.750651 2.412807 9.007812
-0.697033 2.412807 9.007812
-0.643415 2.412807 9.007812
-0.589797 2.412807 9.007812
-0.536179 2.412807 9.007812
-0.482561 2.412807 9.007812
-0.428943 2.412807 9.007812
-0.375326 2.412807 9.007812
-0.321708 2.412807 9.007812
-0.268090 2.412807 9.007812
-0.214472 2.412807 9.007812
-0.160854 2.412807 9.007812
-0.107236 2.412807 9.007812
-0.053618 2.412807 9.007812
0.000000 2.412807 9.007812
0.053618 2.412807 9.007812
0.107236 2.412807 9.007812
0.160854 2.412807 9.007812
0.214472 2.412807 9.007812
0.268090 2.412807 9.007812
0.321708 2.412807 9.007812
0.375326 2.412807 9.007812
0.428943 2.412807 9.007812
0.482561 2.412807 9.007812
0.536179 2.412807 9.007812
0.589797 2.412807 9.007812
0.643415 2.412807 9.007812
0.697033 2.412807 9.007812
0.750651 2.412807 9.007812
0.804269 2.412807 9.007812
0.857887 2.412807 9.007812
0.911505 2.412807 9.007812
0.965123 2.412807 9.007812
1.018741 2.412807 9.007812
1.072359 2.412807 9.007812
1.125977 2.412807 9.007812
1.179595 2.412807 9.007812
1.233212 2.412807 9.007812
1.286830 2.412807 9.007812
1.340448 2.412807 9.007812
1.394066 2.412807 9.007812
1.447684 2.412807 9.007812
1.501302 2.412807 9.007812
1.554920 2.412807 9.007812
1.608538 2.412807 9.007812
1.662156 2.412807 9.007812
1.715774 2.412807 9.007812
1.769392 2.412807 9.007812
1.823010 2.412807 9.007812
1.876628 2.412807 9.007812
1.930246 2.412807 9.007812
1.983863 2.412807 9.007812
2.037481 2.412807 9.007812
2.091099 2.412807 9.007812
2.144717 2.412807 9.007812
2.198335 2.412807 9.007812
2.251953 2.412807 9.007812
2.305571 2.412807 9.007812
2.359189 2.412807 9.007812
2.412807 2.412807 9.007812
2.466425 2.412807 9.007812
2.520043 2.412807 9.007812
2.573661 2.412807 9.007812
2.627279 2.412807 9.007812
2.680897 2.412807 9.007812
2.734514 2.412807 9.007812
2.788132 2.412807 9.007812
2.841750 2.412807 9.007812
2.895368 2.412807 9.007812
2.948986 2.412807 9.007812
3.002604 2.412807 9.007812
3.056222 2.412807 9.007812
3.109840 2.412807 9.007812
3.163458 2.412807 9.007812
3.217076 2.412807 9.007812
3.270694 2.412807 9.007812
3.324312 2.412807 9.007812
3.377930 2.412807 9.007812
3.431548 2.412807 9.007812
3.485166 2.412807 9.007812
3.538784 2.412807 9.007812
3.592402 2.412807 9.007812
3.646019 2.412807 9.007812
3.699637 2.412807 9.007812
3.753255 2.412807 9.007812
3.806873 2.412807 9.007812
3.860491 2.412807 9.007812
3.914109 2.412807 9.007812
3.967727 2.412807 9.007812
4.021345 2.412807 9.007812
4.074963 2.412807 9.007812
4.128581 2.412807 9.007812
4.182199 2.412807 9.007812
4.235816 2.412807 9.007812
4.289434 2.412807 9.007812
4.343052 2.412807 9.007812
4.396670 2.412807 9.007812
4.450288 2.412807 9.007812
4.503906 2.412807 9.007812
4.557524 2.412807 9.007812
4.611142 2.412807 9.007812
4.664760 2.412807 9.007812
4.718378 2.412807 9.007812
4.771996 2.412807 9.007812
4.825614 2.412807 9.007812
4.879232 2.412807 9.007812
4.932850 2.412807 9.007812
4.986468 2.412807 9.007812
5.040086 2.412807 9.007812
5.093703 2.412807 9.007812
5.147321 2.412807 9.007812
5.200939 2.412807 9.007812
5.254557 2.412807 9.007812
5.308175 2.412807 9.007812
5.361793 2.412807 9.007812
5.415411 2.412807 9.007812
5.469029 2.412807 9.007812
5.522647 2.412807 9.007812
5.576265 2.412807 9.007812
5.629883 2.412807 9.007812
5.683501 2.412807 9.007812
5.737119 2.412807 9.007812
5.790737 2.412807 9.007812
5.844355 2.412807 9.007812
5.897973 2.412807 9.007812
5.951591 2.412807 9.007812
6.005208 2.412807 9.007812
6.058826 2.412807 9.007812
6.112444 2.412807 9.007812
6.166062 2.412807 9.007812
6.219680 2.412807 9.007812
6.273298 2.412807 9.007812
6.326916 2.412807 9.007812
6.380534 2.412807 9.007812
6.434152 2.412807 9.007812
6.487770 2.412807 9.007812
6.541388 2.412807 9.007812
6.595006 2.412807 9.007812
6.648623 2.412807 9.007812
6.702241 2.412807 9.007812
6.755859 2.412807 9.007812
6.809477 2.412807 9.007812
6.863095 2.412807 9.007812
6.916713 2.412807 9.007812
6.970331 2.412807 9.007812
7.023949 2.412807 9.007812
7.077567 2.412807 9.007812
7.131185 2.412807 9.007812
7.184803 2.412807 9.007812
7.238421 2.412807 9.007812
7.292039 2.412807 9.007812
7.345656 2.412807 9.007812
7.399274 2.412807 9.007812
7.452892 2.412807 9.007812
7.506510 2.412807 9.007812
7.560128 2.412807 9.007812
7.613746 2.412807 9.007812
7.667364 2.412807 9.007812
7.720982 2.412807 9.007812
7.774600 2.412807 9.007812
7.828218 2.412807 9.007812
7.881836 2.412807 9.007812
7.935454 2.412807 9.007812
7.989072 2.412807 9.007812
8.042689 2.412807 9.007812
8.096308 2.412807 9.007812
8.149925 2.412807 9.007812
8.203544 2.412807 9.007812
8.257161 2.412807 9.007812
8.310780 2.412807 9.007812
8.364397 2.412807 9.007812
8.418015 2.412807 9.007812
8.471633 2.412807 9.007812
8.525251 2.412807 9.007812
8.578869 2.412807 9.007812
8.632487 2.412807 9.007812
8.686105 2.412807 9.007812
8.739723 2.412807 9.007812
8.793341 2.412807 9.007812
8.846959 2.412807 9.007812
8.900577 2.412807 9.007812
8.954195 2.412807 9.007812
-3.554688 0.973307 3.554688
-3.552944 0.978655 3.574219
-3.552897 0.984538 3.595703
-3.552595 0.990420 3.617188
-3.552037 0.996303 3.638672
-3.551223 1.002186 3.660156
-3.550153 1.008068 3.681641
-3.550700 1.014486 3.705078
-3.549107 1.020368 3.726562
-3.549107 1.026786 3.750000
-3.548828 1.033203 3.773438
-3.548270 1.039621 3.796875
-3.547433 1.046038 3.820312
-3.546317 1.052455 3.843750
-3.546712 1.059408 3.869141
-3.545027 1.065825 3.892578
-3.544829 1.072777 3.917969
-3.544329 1.079729 3.943359
-3.543527 1.086682 3.968750
-3.542422 1.093634 3.994141
-3.541016 1.100586 4.019531
-3.541016 1.108073 4.046875
-3.540690 1.115560 4.074219
-3.540039 1.123047 4.101562
-3.539062 1.130534 4.128906
-3.537760 1.138021 4.156250
