4.763021 1.190755 14.289062
4.765904 1.170573 14.046875
4.771298 1.151693 13.820312
4.773995 1.132812 13.593750
4.776786 1.114583 13.375000
4.836542 1.110026 13.320312
4.915830 1.110026 13.320312
4.980469 1.106771 13.281250
4.982143 1.089844 13.078125
5.038830 1.085286 13.023438
5.116351 1.085286 13.023438
5.193871 1.085286 13.023438
5.271391 1.085286 13.023438
5.348912 1.085286 13.023438
5.429688 1.085938 13.031250
5.507255 1.085938 13.031250
5.584821 1.085938 13.031250
5.662388 1.085938 13.031250
5.739955 1.085938 13.031250
5.817523 1.085938 13.031250
5.898623 1.086589 13.039062
5.976237 1.086589 13.039062
6.053851 1.086589 13.039062
6.131464 1.086589 13.039062
6.209077 1.086589 13.039062
6.286691 1.086589 13.039062
6.368117 1.087240 13.046875
6.445777 1.087240 13.046875
6.523438 1.087240 13.046875
6.601098 1.087240 13.046875
6.678758 1.087240 13.046875
6.756417 1.087240 13.046875
6.838170 1.087891 13.054688
6.915876 1.087891 13.054688
6.993583 1.087891 13.054688
7.071289 1.087891 13.054688
7.148995 1.087891 13.054688
7.226702 1.087891 13.054688
7.308780 1.088542 13.062500
7.386533 1.088542 13.062500
7.464286 1.088542 13.062500
7.542039 1.088542 13.062500
7.619792 1.088542 13.062500
7.697545 1.088542 13.062500
7.779948 1.089193 13.070312
7.857748 1.089193 13.070312
7.935547 1.089193 13.070312
8.013347 1.089193 13.070312
8.091146 1.089193 13.070312
8.168945 1.089193 13.070312
8.251674 1.089844 13.078125
8.329520 1.089844 13.078125
8.407366 1.089844 13.078125
8.485212 1.089844 13.078125
8.563058 1.089844 13.078125
8.640904 1.089844 13.078125
8.723958 1.090495 13.085938
8.801851 1.090495 13.085938
8.879744 1.090495 13.085938
8.957636 1.090495 13.085938
9.035528 1.090495 13.085938
9.113420 1.090495 13.085938
9.196800 1.091146 13.093750
9.274739 1.091146 13.093750
9.352678 1.091146 13.093750
9.430617 1.091146 13.093750
9.508556 1.091146 13.093750
9.586495 1.091146 13.093750
9.670201 1.091797 13.101562
9.748186 1.091797 13.101562
9.826172 1.091797 13.101562
9.904158 1.091797 13.101562
21.833334 2.388021 28.656250
18.380581 1.994792 23.937500
18.390066 1.980469 23.765625
18.397507 1.966146 23.593750
18.390625 1.950521 23.406250
18.393881 1.936198 23.234375
18.407553 1.923177 23.078125
18.406809 1.908854 22.906250
18.404018 1.894531 22.734375
18.411922 1.881510 22.578125
18.417969 1.868490 22.421875
18.422153 1.855469 22.265625
18.424479 1.842448 22.109375
18.424944 1.829427 21.953125
18.423550 1.816406 21.796875
18.420294 1.803385 21.640625
18.428572 1.791667 21.500000
18.435175 1.779948 21.359375
18.440104 1.768229 21.218750
18.443359 1.756510 21.078125
18.444941 1.744792 20.937500
18.444847 1.733073 20.796875
18.443081 1.721354 20.656250
18.439640 1.709635 20.515625
18.448660 1.699219 20.390625
18.456194 1.688802 20.265625
18.447916 1.677083 20.125000
18.452381 1.666667 20.000000
18.455357 1.656250 19.875000
18.456844 1.645833 19.750000
18.456844 1.635417 19.625000
18.470144 1.626302 19.515625
18.467262 1.615885 19.390625
18.462891 1.605469 19.265625
18.472097 1.596354 19.156250
18.464844 1.585938 19.031250
18.471354 1.576823 18.921875
18.476562 1.567708 18.812500
18.480469 1.558594 18.703125
18.483072 1.549479 18.593750
-3.736328 0.333601 3.736328
-3.735445 0.335519 3.757812
-3.736235 0.337612 3.781250
-3.736747 0.339704 3.804688
-3.736979 0.341797 3.828125
-3.738828 0.344064 3.853516
-3.738491 0.346157 3.876953
-3.737874 0.348249 3.900391
-3.738839 0.350516 3.925781
-3.739502 0.352783 3.951172
-3.739862 0.355050 3.976562
-3.738095 0.357143 4.000000
-3.739676 0.359584 4.027344
-3.740932 0.362026 4.054688
-3.741862 0.364467 4.082031
-3.742466 0.366908 4.109375
-3.558966 0.351214 3.933594
-3.533796 0.351039 3.931641
-3.510393 0.351039 3.931641
-3.492188 0.351562 3.937500
-3.479074 0.352609 3.949219
-3.465820 0.353655 3.960938
-3.452427 0.354701 3.972656
-3.438895 0.355748 3.984375
-3.428571 0.357143 4.000000
-3.421387 0.358887 4.019531
-3.413970 0.360631 4.039062
-3.412877 0.363072 4.066406
-3.411458 0.365513 4.093750
-3.412946 0.368304 4.125000
-3.414062 0.371094 4.156250
-3.414807 0.373884 4.187500
-3.415179 0.376674 4.218750
-3.415179 0.379464 4.250000
-3.414807 0.382254 4.281250
-3.414062 0.385045 4.312500
-3.416016 0.388184 4.347656
-3.417550 0.391323 4.382812
-3.415644 0.394113 4.414062
-3.416364 0.397252 4.449219
-3.416667 0.400391 4.484375
-3.419503 0.403878 4.523438
-3.418945 0.407017 4.558594
-3.417969 0.410156 4.593750
-3.419457 0.413644 4.632812
-3.420480 0.417132 4.671875
-3.421038 0.420619 4.710938
-3.421131 0.424107 4.750000
-3.420759 0.427595 4.789062
-3.419922 0.431083 4.828125
-3.407645 0.433175 4.851562
-3.386928 0.434222 4.863281
-3.371466 0.435965 4.882812
-3.366467 0.439104 4.917969
-3.366350 0.442941 4.960938
-3.368350 0.447126 5.007812
-3.367188 0.450963 5.050781
-3.368094 0.455148 5.097656
-3.368443 0.459333 5.144531
-3.368234 0.463518 5.191406
-3.369978 0.468052 5.242188
-3.368629 0.472238 5.289062
-3.369187 0.476772 5.339844
-3.371582 0.481655 5.394531
-3.370908 0.486189 5.445312
-3.372024 0.491071 5.500000
-3.372489 0.495954 5.554688
-3.372303 0.500837 5.609375
-3.373791 0.506069 5.667969
-3.372280 0.510951 5.722656
-3.374675 0.516532 5.785156
-3.374070 0.521763 5.843750
-3.375000 0.527344 5.906250
-3.375186 0.532924 5.968750
-3.374628 0.538504 6.031250
-3.375488 0.544434 6.097656
-3.375558 0.550363 6.164062
-3.376953 0.556641 6.234375
-3.377511 0.562919 6.304688
-3.377232 0.569196 6.375000
-3.378162 0.575823 6.449219
-3.378209 0.582450 6.523438
-3.379371 0.589425 6.601562
-3.379604 0.596401 6.679688
-3.378906 0.603376 6.757812
-3.379209 0.610700 6.839844
-3.380441 0.618373 6.925781
-3.380650 0.626046 7.011719
-3.381696 0.634068 7.101562
-3.381673 0.642090 7.191406
-3.382394 0.650460 7.285156
-3.383789 0.659180 7.382812
-3.384022 0.667899 7.480469
-3.384835 0.676967 7.582031
-3.384440 0.686035 7.683594
-3.386230 0.695801 7.792969
-3.386719 0.705566 7.902344
-3.387556 0.715681 8.015625
-3.388672 0.726144 8.132812
-3.385184 0.735910 8.242188
-3.383557 0.746373 8.359375
-3.383650 0.757533 8.484375
-3.382254 0.768694 8.609375
-3.391462 0.782645 8.765625
-3.440476 0.806362 9.031250
-3.442383 0.819615 9.179688
-3.442522 0.832868 9.328125
-3.446568 0.847517 9.492188
-3.861607 0.965402 10.812500
-3.865839 0.982840 11.007812
-3.867746 1.000279 11.203125
-3.872628 1.019113 11.414062
-3.877604 1.038644 11.632812
-3.879976 1.058175 11.851562
-3.884766 1.079102 12.085938
-3.889230 1.100725 12.328125
-3.893229 1.123047 12.578125
-3.898996 1.146763 12.843750
-3.903925 1.171178 13.117188
-3.907878 1.196289 13.398438
-3.912946 1.222796 13.695312
-3.918852 1.250697 14.007812
-3.925316 1.279994 14.335938
-3.932059 1.310686 14.679688
-3.936756 1.342076 15.031250
-3.945266 1.376256 15.414062
-3.951172 1.411133 15.804688
-3.958147 1.448103 16.218750
-3.965774 1.487165 16.656250
-3.975446 1.529018 17.125000
-3.983073 1.572266 17.609375
-3.991816 1.618304 18.125000
-4.001116 1.667132 18.671875
-4.013672 1.720145 19.265625
-4.022321 1.774554 19.875000
-4.035993 1.834542 20.546875
-4.047619 1.897321 21.250000
-4.062407 1.965681 22.015625
-4.076451 2.038225 22.828125
-4.091611 2.116350 23.703125
-4.109375 2.201451 24.656250
-4.128348 2.293527 25.687500
-4.139881 2.388393 26.750000
-3.980655 2.388393 26.750000
-3.821429 2.388393 26.750000
-3.662202 2.388393 26.750000
-3.502976 2.388393 26.750000
-3.343750 2.388393 26.750000
-3.184524 2.388393 26.750000
-3.025298 2.388393 26.750000
-2.866071 2.388393 26.750000
-2.706845 2.388393 26.750000
-2.547619 2.388393 26.750000
-2.388393 2.388393 26.750000
-2.229167 2.388393 26.750000
-2.069941 2.388393 26.750000
-1.910714 2.388393 26.750000
-1.751488 2.388393 26.750000
-1.592262 2.388393 26.750000
-1.433036 2.388393 26.750000
-1.273810 2.388393 26.750000
-1.114583 2.388393 26.750000
-0.955357 2.388393 26.750000
-0.796131 2.388393 26.750000
-0.636905 2.388393 26.750000
-0.477679 2.388393 26.750000
-0.318452 2.388393 26.750000
-0.159226 2.388393 26.750000
0.000000 2.388393 26.750000
0.159226 2.388393 26.750000
0.318452 2.388393 26.750000
0.477679 2.388393 26.750000
0.636905 2.388393 26.750000
0.796131 2.388393 26.750000
0.955357 2.388393 26.750000
1.114583 2.388393 26.750000
1.273810 2.388393 26.750000
1.433036 2.388393 26.750000
1.592262 2.388393 26.750000
1.751488 2.388393 26.750000
1.910714 2.388393 26.750000
2.069941 2.388393 26.750000
2.229167 2.388393 26.750000
2.388393 2.388393 26.750000
2.547619 2.388393 26.750000
2.706845 2.388393 26.750000
2.866071 2.388393 26.750000
3.025298 2.388393 26.750000
3.184524 2.388393 26.750000
3.343750 2.388393 26.750000
3.502976 2.388393 26.750000
3.662202 2.388393 26.750000
3.821429 2.388393 26.750000
3.980655 2.388393 26.750000
3.767485 2.173549 24.343750
3.887277 2.159598 24.187500
4.020833 2.154018 24.125000
4.159040 2.151228 24.093750
4.305245 2.152623 24.109375
4.463170 2.159598 24.187500
5.095238 2.388393 26.750000
5.254464 2.388393 26.750000
4.582031 2.021484 22.640625
4.589844 1.967076 22.031250
4.600446 1.916853 21.468750
4.611235 1.869420 20.937500
4.633370 1.828962 20.484375
4.682757 1.801060 20.171875
4.791667 1.796875 20.125000
4.861886 1.778739 19.921875
4.867188 1.738281 19.468750
4.875093 1.700614 19.046875
4.882069 1.664342 18.640625
4.888393 1.629464 18.250000
4.898623 1.597377 17.890625
4.904576 1.565290 17.531250
4.910714 1.534598 17.187500
4.912760 1.503906 16.843750
4.703776 1.411133 15.804688
4.707729 1.384626 15.507812
4.712984 1.359514 15.226562
4.717355 1.335100 14.953125
4.723493 1.312081 14.695312
4.726562 1.289062 14.437500
4.731771 1.267439 14.195312
4.736747 1.246512 13.960938
4.744327 1.226981 13.742188
4.771252 1.213030 13.585938
4.776786 1.194196 13.375000
4.836542 1.189314 13.320312
4.915830 1.189314 13.320312
4.980469 1.185826 13.281250
4.982143 1.167690 13.078125
5.038830 1.162807 13.023438
5.116351 1.162807 13.023438
5.193871 1.162807 13.023438
5.271391 1.162807 13.023438
5.348912 1.162807 13.023438
5.429688 1.163504 13.031250
5.507255 1.163504 13.031250
5.584821 1.163504 13.031250
5.662388 1.163504 13.031250
5.739955 1.163504 13.031250
5.817523 1.163504 13.031250
5.898623 1.164202 13.039062
5.976237 1.164202 13.039062
6.053851 1.164202 13.039062
6.131464 1.164202 13.039062
6.209077 1.164202 13.039062
6.286691 1.164202 13.039062
6.368117 1.164900 13.046875
6.445777 1.164900 13.046875
6.523438 1.164900 13.046875
6.601098 1.164900 13.046875
6.678758 1.164900 13.046875
6.756417 1.164900 13.046875
6.838170 1.165597 13.054688
6.915876 1.165597 13.054688
6.993583 1.165597 13.054688
7.071289 1.165597 13.054688
7.148995 1.165597 13.054688
7.226702 1.165597 13.054688
7.308780 1.166295 13.062500
7.386533 1.166295 13.062500
7.464286 1.166295 13.062500
7.542039 1.166295 13.062500
7.619792 1.166295 13.062500
7.697545 1.166295 13.062500
7.779948 1.166992 13.070312
7.857748 1.166992 13.070312
7.935547 1.166992 13.070312
8.013347 1.166992 13.070312
8.091146 1.166992 13.070312
8.168945 1.166992 13.070312
8.251674 1.167690 13.078125
8.329520 1.167690 13.078125
8.407366 1.167690 13.078125
8.485212 1.167690 13.078125
8.563058 1.167690 13.078125
8.640904 1.167690 13.078125
8.723958 1.168387 13.085938
8.801851 1.168387 13.085938
8.879744 1.168387 13.085938
8.957636 1.168387 13.085938
9.035528 1.168387 13.085938
9.113420 1.168387 13.085938
9.196800 1.169085 13.093750
9.274739 1.169085 13.093750
9.352678 1.169085 13.093750
9.430617 1.169085 13.093750
9.508556 1.169085 13.093750
9.586495 1.169085 13.093750
9.670201 1.169782 13.101562
9.748186 1.169782 13.101562
9.826172 1.169782 13.101562
9.904158 1.169782 13.101562
20.380953 2.388393 26.750000
18.380581 2.137277 23.937500
18.390066 2.121931 23.765625
18.397507 2.106585 23.593750
18.390625 2.089844 23.406250
18.393881 2.074498 23.234375
18.407553 2.060547 23.078125
18.406809 2.045201 22.906250
18.404018 2.029855 22.734375
18.411922 2.015904 22.578125
18.417969 2.001953 22.421875
18.422153 1.988002 22.265625
18.424479 1.974051 22.109375
18.424944 1.960100 21.953125
18.423550 1.946150 21.796875
18.420294 1.932199 21.640625
18.428572 1.919643 21.500000
18.435175 1.907087 21.359375
18.440104 1.894531 21.218750
18.443359 1.881975 21.078125
18.444941 1.869420 20.937500
18.444847 1.856864 20.796875
18.443081 1.844308 20.656250
18.439640 1.831752 20.515625
18.448660 1.820592 20.390625
18.456194 1.809431 20.265625
18.447916 1.796875 20.125000
18.452381 1.785714 20.000000
18.455357 1.774554 19.875000
18.456844 1.763393 19.750000
18.456844 1.752232 19.625000
18.470144 1.742467 19.515625
18.467262 1.731306 19.390625
18.462891 1.720145 19.265625
18.472097 1.710379 19.156250
18.464844 1.699219 19.031250
18.471354 1.689453 18.921875
18.476562 1.679688 18.812500
18.480469 1.669922 18.703125
18.483072 1.660156 18.593750
-3.736328 0.355841 3.736328
-3.735445 0.357887 3.757812
-3.736235 0.360119 3.781250
-3.736747 0.362351 3.804688
-3.736979 0.364583 3.828125
-3.738828 0.367001 3.853516
-3.738491 0.369234 3.876953
-3.737874 0.371466 3.900391
-3.738839 0.373884 3.925781
-3.739502 0.376302 3.951172
-3.739862 0.378720 3.976562
-3.738095 0.380952 4.000000
-3.739676 0.383557 4.027344
-3.740932 0.386161 4.054688
-3.741862 0.388765 4.082031
-3.609061 0.377418 3.962891
-3.555432 0.374256 3.929688
-3.532041 0.374256 3.929688
-3.510393 0.374442 3.931641
-3.490455 0.374814 3.935547
-3.477353 0.375930 3.947266
-3.464111 0.377046 3.958984
-3.449033 0.377976 3.968750
-3.435524 0.379092 3.980469
-3.426897 0.380766 3.998047
-3.418062 0.382440 4.015625
-3.410668 0.384301 4.035156
-3.409598 0.386905 4.062500
-3.408203 0.389509 4.089844
-3.409714 0.392485 4.121094
-3.410854 0.395461 4.152344
-3.411621 0.398438 4.183594
-3.412016 0.401414 4.214844
-3.412040 0.404390 4.246094
-3.411691 0.407366 4.277344
-3.414062 0.410714 4.312500
-3.412946 0.413690 4.343750
-3.414504 0.417039 4.378906
-3.415644 0.420387 4.414062
-3.413365 0.423363 4.445312
-3.416667 0.427083 4.484375
-3.416550 0.430432 4.519531
-3.416016 0.433780 4.554688
-3.417969 0.437500 4.593750
-3.416574 0.440848 4.628906
-3.417620 0.444568 4.667969
-3.418201 0.448289 4.707031
-3.418318 0.452009 4.746094
-3.417969 0.455729 4.785156
-3.417155 0.459449 4.824219
-3.399414 0.460938 4.839844
-3.381487 0.462426 4.855469
-3.366071 0.464286 4.875000
-3.363793 0.468006 4.914062
-3.363700 0.472098 4.957031
-3.363095 0.476190 5.000000
-3.364583 0.480655 5.046875
-3.362932 0.484747 5.089844
-3.363328 0.489211 5.136719
-3.363165 0.493676 5.183594
-3.364955 0.498512 5.234375
-3.363653 0.502976 5.281250
-3.364258 0.507812 5.332031
-3.366699 0.513021 5.386719
-3.366071 0.517857 5.437500
-3.367234 0.523065 5.492188
-3.367746 0.528274 5.546875
-3.367606 0.533482 5.601562
-3.369141 0.539062 5.660156
-3.367676 0.544271 5.714844
-3.367839 0.549851 5.773438
-3.369559 0.555804 5.835938
-3.370536 0.561756 5.898438
-3.370768 0.567708 5.960938
-3.370257 0.573661 6.023438
-3.371164 0.579985 6.089844
-3.371280 0.586310 6.156250
-3.370605 0.592634 6.222656
-3.371233 0.599330 6.292969
-3.373093 0.606399 6.367188
-3.372024 0.613095 6.437500
-3.372140 0.620164 6.511719
-3.373372 0.627604 6.589844
-3.373675 0.635045 6.667969
-3.375000 0.642857 6.750000
-3.375349 0.650670 6.832031
-3.374721 0.658482 6.914062
-3.375000 0.666667 7.000000
-3.376116 0.675223 7.089844
-3.376163 0.683780 7.179688
-3.376953 0.692708 7.273438
-3.376628 0.701637 7.367188
-3.378720 0.711310 7.468750
-3.377860 0.720610 7.566406
-3.379278 0.730655 7.671875
-3.379441 0.740699 7.777344
-3.380022 0.751116 7.886719
-3.380952 0.761905 8.000000
-3.382161 0.773065 8.117188
-3.378767 0.783482 8.226562
-3.377232 0.794643 8.343750
-3.374302 0.805804 8.460938
-3.376116 0.818452 8.593750
-3.379371 0.831845 8.734375
-3.434524 0.858631 9.015625
-3.433594 0.872024 9.156250
-3.436756 0.886905 9.312500
-3.438058 0.901786 9.468750
-3.861607 1.029762 10.812500
-3.865839 1.048363 11.007812
-3.867746 1.066964 11.203125
-3.872628 1.087054 11.414062
-3.877604 1.107887 11.632812
-3.879976 1.128720 11.851562
-3.884766 1.151042 12.085938
-3.889230 1.174107 12.328125
-3.893229 1.197917 12.578125
-3.898996 1.223214 12.843750
-3.903925 1.249256 13.117188
-3.907878 1.276042 13.398438
-3.912946 1.304315 13.695312
-3.918852 1.334077 14.007812
-3.925316 1.365327 14.335938
-3.932059 1.398065 14.679688
-3.936756 1.431548 15.031250
-3.945266 1.468006 15.414062
-3.951172 1.505208 15.804688
-3.958147 1.544643 16.218750
-3.965774 1.586310 16.656250
-3.975446 1.630952 17.125000
-3.983073 1.677083 17.609375
-3.991816 1.726190 18.125000
-4.001116 1.778274 18.671875
-4.013672 1.834821 19.265625
-4.022321 1.892857 19.875000
-4.035993 1.956845 20.546875
-4.047619 2.023809 21.250000
-4.062407 2.096726 22.015625
-4.076451 2.174107 22.828125
-4.091611 2.257441 23.703125
-4.109375 2.348214 24.656250
-4.030413 2.388393 25.078125
-3.881138 2.388393 25.078125
-3.731864 2.388393 25.078125
-3.582589 2.388393 25.078125
-3.433315 2.388393 25.078125
-3.284040 2.388393 25.078125
-3.134766 2.388393 25.078125
-2.985491 2.388393 25.078125
-2.836216 2.388393 25.078125
-2.686942 2.388393 25.078125
-2.537668 2.388393 25.078125
-2.388393 2.388393 25.078125
-2.239118 2.388393 25.078125
-2.089844 2.388393 25.078125
-1.940569 2.388393 25.078125
-1.791295 2.388393 25.078125
-1.642020 2.388393 25.078125
-1.492746 2.388393 25.078125
-1.343471 2.388393 25.078125
-1.194196 2.388393 25.078125
-1.044922 2.388393 25.078125
-0.895647 2.388393 25.078125
-0.746373 2.388393 25.078125
-0.597098 2.388393 25.078125
-0.447824 2.388393 25.078125
-0.298549 2.388393 25.078125
-0.149275 2.388393 25.078125
0.000000 2.388393 25.078125
0.149275 2.388393 25.078125
0.298549 2.388393 25.078125
0.447824 2.388393 25.078125
0.597098 2.388393 25.078125
0.746373 2.388393 25.078125
0.895647 2.388393 25.078125
1.044922 2.388393 25.078125
1.194196 2.388393 25.078125
1.343471 2.388393 25.078125
1.492746 2.388393 25.078125
1.642020 2.388393 25.078125
1.791295 2.388393 25.078125
1.940569 2.388393 25.078125
2.089844 2.388393 25.078125
2.239118 2.388393 25.078125
2.388393 2.388393 25.078125
2.537668 2.388393 25.078125
2.686942 2.388393 25.078125
2.836216 2.388393 25.078125
2.985491 2.388393 25.078125
3.134766 2.388393 25.078125
3.284040 2.388393 25.078125
3.433315 2.388393 25.078125
3.582589 2.388393 25.078125
3.731864 2.388393 25.078125
3.881138 2.388393 25.078125
4.030413 2.388393 25.078125
4.070312 2.325893 24.421875
4.210287 2.322917 24.390625
4.478237 2.388393 25.078125
4.627511 2.388393 25.078125
4.776786 2.388393 25.078125
4.926060 2.388393 25.078125
4.604167 2.166667 22.750000
4.619141 2.111607 22.171875
4.600446 2.044643 21.468750
4.611235 1.994048 20.937500
4.633370 1.950893 20.484375
4.682757 1.921131 20.171875
4.791667 1.916667 20.125000
4.861886 1.897321 19.921875
4.867188 1.854167 19.468750
4.875093 1.813988 19.046875
4.882069 1.775298 18.640625
4.888393 1.738095 18.250000
4.898623 1.703869 17.890625
4.904576 1.669643 17.531250
4.910714 1.636905 17.187500
4.912760 1.604167 16.843750
4.703776 1.505208 15.804688
4.707729 1.476935 15.507812
4.712984 1.450149 15.226562
4.717355 1.424107 14.953125
4.723493 1.399554 14.695312
4.726562 1.375000 14.437500
4.731771 1.351935 14.195312
4.736747 1.329613 13.960938
4.738932 1.307292 13.726562
4.743815 1.286458 13.507812
4.776786 1.273810 13.375000
4.836542 1.268601 13.320312
4.915830 1.268601 13.320312
4.980469 1.264881 13.281250
4.982143 1.245536 13.078125
5.038830 1.240327 13.023438
5.116351 1.240327 13.023438
5.193871 1.240327 13.023438
5.271391 1.240327 13.023438
5.348912 1.240327 13.023438
5.429688 1.241071 13.031250
5.507255 1.241071 13.031250
5.584821 1.241071 13.031250
5.662388 1.241071 13.031250
5.739955 1.241071 13.031250
5.817523 1.241071 13.031250
5.898623 1.241815 13.039062
5.976237 1.241815 13.039062
6.053851 1.241815 13.039062
6.131464 1.241815 13.039062
6.209077 1.241815 13.039062
6.286691 1.241815 13.039062
6.368117 1.242560 13.046875
6.445777 1.242560 13.046875
6.523438 1.242560 13.046875
6.601098 1.242560 13.046875
6.678758 1.242560 13.046875
6.756417 1.242560 13.046875
6.838170 1.243304 13.054688
6.915876 1.243304 13.054688
6.993583 1.243304 13.054688
7.071289 1.243304 13.054688
7.148995 1.243304 13.054688
7.226702 1.243304 13.054688
7.308780 1.244048 13.062500
7.386533 1.244048 13.062500
7.464286 1.244048 13.062500
7.542039 1.244048 13.062500
7.619792 1.244048 13.062500
7.697545 1.244048 13.062500
7.779948 1.244792 13.070312
7.857748 1.244792 13.070312
7.935547 1.244792 13.070312
8.013347 1.244792 13.070312
8.091146 1.244792 13.070312
8.168945 1.244792 13.070312
8.251674 1.245536 13.078125
8.329520 1.245536 13.078125
8.407366 1.245536 13.078125
8.485212 1.245536 13.078125
8.563058 1.245536 13.078125
8.640904 1.245536 13.078125
8.723958 1.246280 13.085938
8.801851 1.246280 13.085938
8.879744 1.246280 13.085938
8.957636 1.246280 13.085938
9.035528 1.246280 13.085938
9.113420 1.246280 13.085938
9.196800 1.247024 13.093750
9.274739 1.247024 13.093750
9.352678 1.247024 13.093750
9.430617 1.247024 13.093750
9.508556 1.247024 13.093750
9.586495 1.247024 13.093750
9.670201 1.247768 13.101562
9.748186 1.247768 13.101562
9.826172 1.247768 13.101562
9.904158 1.247768 13.101562
19.107143 2.388393 25.078125
18.380581 2.279762 23.937500
18.390066 2.263393 23.765625
18.397507 2.247024 23.593750
18.390625 2.229167 23.406250
18.393881 2.212798 23.234375
18.407553 2.197917 23.078125
18.406809 2.181548 22.906250
18.404018 2.165179 22.734375
18.411922 2.150298 22.578125
18.417969 2.135417 22.421875
18.422153 2.120536 22.265625
18.424479 2.105655 22.109375
18.424944 2.090774 21.953125
18.423550 2.075893 21.796875
18.420294 2.061012 21.640625
18.428572 2.047619 21.500000
18.435175 2.034226 21.359375
18.440104 2.020833 21.218750
18.443359 2.007441 21.078125
18.444941 1.994048 20.937500
18.444847 1.980655 20.796875
18.443081 1.967262 20.656250
18.439640 1.953869 20.515625
18.448660 1.941964 20.390625
18.456194 1.930060 20.265625
18.447916 1.916667 20.125000
18.452381 1.904762 20.000000
18.455357 1.892857 19.875000
18.456844 1.880952 19.750000
18.456844 1.869048 19.625000
18.470144 1.858631 19.515625
18.467262 1.846726 19.390625
18.462891 1.834821 19.265625
18.472097 1.824405 19.156250
18.464844 1.812500 19.031250
18.471354 1.802083 18.921875
18.476562 1.791667 18.812500
18.480469 1.781250 18.703125
18.483072 1.770833 18.593750
-3.736328 0.378081 3.736328
-3.735445 0.380255 3.757812
-3.736235 0.382626 3.781250
-3.736747 0.384998 3.804688
-3.736979 0.387370 3.828125
-3.738828 0.389939 3.853516
-3.738491 0.392311 3.876953
-3.737874 0.394682 3.900391
-3.738839 0.397252 3.925781
-3.739502 0.399821 3.951172
-3.739862 0.402390 3.976562
-3.738095 0.404762 4.000000
-3.739676 0.407529 4.027344
-3.740932 0.410296 4.054688
-3.741862 0.413063 4.082031
-3.617955 0.401995 3.972656
-3.555432 0.397647 3.929688
-3.532041 0.397647 3.929688
-3.510393 0.397845 3.931641
-3.488723 0.398042 3.933594
-3.475632 0.399228 3.945312
-3.462402 0.400414 3.957031
-3.449033 0.401600 3.968750
-3.433838 0.402588 3.978516
-3.425223 0.404367 3.996094
-3.414737 0.405948 4.011719
-3.407366 0.407924 4.031250
-3.406320 0.410691 4.058594
-3.404948 0.413458 4.085938
-3.406482 0.416620 4.117188
-3.407645 0.419782 4.148438
-3.408436 0.422945 4.179688
-3.408854 0.426107 4.210938
-3.408901 0.429269 4.242188
-3.408575 0.432431 4.273438
-3.407878 0.435593 4.304688
-3.409877 0.439151 4.339844
-3.408412 0.442313 4.371094
-3.409598 0.445871 4.406250
-3.410366 0.449428 4.441406
-3.410714 0.452985 4.476562
-3.410645 0.456543 4.511719
-3.413086 0.460496 4.550781
-3.412156 0.464053 4.585938
-3.413691 0.468006 4.625000
-3.414760 0.471959 4.664062
-3.415365 0.475911 4.703125
-3.415504 0.479864 4.742188
-3.415179 0.483817 4.781250
-3.411621 0.487374 4.816406
-3.393927 0.488956 4.832031
-3.373326 0.490141 4.843750
-3.363374 0.492908 4.871094
-3.358445 0.496466 4.906250
-3.358398 0.500814 4.949219
-3.357840 0.505162 4.992188
-3.359375 0.509905 5.039062
-3.357771 0.514253 5.082031
-3.358212 0.518996 5.128906
-3.358096 0.523740 5.175781
-3.359933 0.528878 5.226562
-3.358677 0.533622 5.273438
-3.359329 0.538760 5.324219
-3.361816 0.544294 5.378906
-3.363653 0.549828 5.433594
-3.362444 0.554967 5.484375
-3.363002 0.560500 5.539062
-3.362909 0.566034 5.593750
-3.364490 0.571963 5.652344
-3.363072 0.577497 5.707031
-3.363281 0.583426 5.765625
-3.365048 0.589751 5.828125
-3.363839 0.595680 5.886719
-3.364141 0.602004 5.949219
-3.365885 0.608724 6.015625
-3.366839 0.615444 6.082031
-3.367002 0.622163 6.148438
-3.366374 0.628883 6.214844
-3.367048 0.635998 6.285156
-3.366885 0.643113 6.355469
-3.367932 0.650623 6.429688
-3.368094 0.658133 6.503906
-3.367373 0.665644 6.578125
-3.367746 0.673549 6.656250
-3.369141 0.681850 6.738281
-3.369559 0.690151 6.820312
-3.369001 0.698451 6.902344
-3.369350 0.707147 6.988281
-3.370536 0.716239 7.078125
-3.370652 0.725330 7.167969
-3.371512 0.734817 7.261719
-3.371257 0.744303 7.355469
-3.371652 0.754185 7.453125
-3.372628 0.764462 7.554688
-3.372396 0.774740 7.656250
-3.372652 0.785412 7.761719
-3.373326 0.796480 7.871094
-3.374349 0.807943 7.984375
-3.375651 0.819801 8.101562
-3.372349 0.830869 8.210938
-3.370908 0.842727 8.328125
-3.368071 0.854585 8.445312
-3.366909 0.867234 8.570312
-3.367280 0.880673 8.703125
-3.425595 0.909924 8.992188
-3.427734 0.924944 9.140625
-3.428106 0.939965 9.289062
-3.429548 0.955776 9.445312
-3.861607 1.094122 10.812500
-3.865839 1.113886 11.007812
-3.867746 1.133650 11.203125
-3.872628 1.154994 11.414062
-3.877604 1.177130 11.632812
-3.879976 1.199265 11.851562
-3.884766 1.222982 12.085938
-3.889230 1.247489 12.328125
-3.893229 1.272786 12.578125
-3.898996 1.299665 12.843750
-3.903925 1.327334 13.117188
-3.907878 1.355794 13.398438
-3.912946 1.385835 13.695312
-3.918852 1.417457 14.007812
-3.925316 1.450660 14.335938
-3.932059 1.485445 14.679688
-3.936756 1.521019 15.031250
-3.945266 1.559756 15.414062
-3.951172 1.599284 15.804688
-3.958147 1.641183 16.218750
-3.965774 1.685454 16.656250
-3.975446 1.732887 17.125000
-3.983073 1.781901 17.609375
-3.991816 1.834077 18.125000
-4.001116 1.889416 18.671875
-4.013672 1.949498 19.265625
-4.022321 2.011161 19.875000
-4.035993 2.079148 20.546875
-4.047619 2.150298 21.250000
-4.062407 2.227772 22.015625
-4.076451 2.309989 22.828125
-4.075428 2.389044 23.609375
-3.934896 2.389044 23.609375
-3.794364 2.389044 23.609375
-3.653832 2.389044 23.609375
-3.513300 2.389044 23.609375
-3.372768 2.389044 23.609375
-3.232236 2.389044 23.609375
-3.091704 2.389044 23.609375
-2.951172 2.389044 23.609375
-2.810640 2.389044 23.609375
-2.670108 2.389044 23.609375
-2.529576 2.389044 23.609375
-2.389044 2.389044 23.609375
-2.248512 2.389044 23.609375
-2.107980 2.389044 23.609375
-1.967448 2.389044 23.609375
-1.826916 2.389044 23.609375
-1.686384 2.389044 23.609375
-1.545852 2.389044 23.609375
-1.405320 2.389044 23.609375
-1.264788 2.389044 23.609375
-1.124256 2.389044 23.609375
-0.983724 2.389044 23.609375
-0.843192 2.389044 23.609375
-0.702660 2.389044 23.609375
-0.562128 2.389044 23.609375
-0.421596 2.389044 23.609375
-0.281064 2.389044 23.609375
-0.140532 2.389044 23.609375
0.000000 2.389044 23.609375
0.140532 2.389044 23.609375
0.281064 2.389044 23.609375
0.421596 2.389044 23.609375
0.562128 2.389044 23.609375
0.702660 2.389044 23.609375
0.843192 2.389044 23.609375
0.983724 2.389044 23.609375
1.124256 2.389044 23.609375
1.264788 2.389044 23.609375
1.405320 2.389044 23.609375
1.545852 2.389044 23.609375
1.686384 2.389044 23.609375
1.826916 2.389044 23.609375
1.967448 2.389044 23.609375
2.107980 2.389044 23.609375
2.248512 2.389044 23.609375
2.389044 2.389044 23.609375
2.529576 2.389044 23.609375
2.670108 2.389044 23.609375
2.810640 2.389044 23.609375
2.951172 2.389044 23.609375
3.091704 2.389044 23.609375
3.232236 2.389044 23.609375
3.372768 2.389044 23.609375
3.513300 2.389044 23.609375
3.653832 2.389044 23.609375
3.794364 2.389044 23.609375
3.934896 2.389044 23.609375
4.075428 2.389044 23.609375
4.215960 2.389044 23.609375
4.356492 2.389044 23.609375
4.497024 2.389044 23.609375
4.637556 2.389044 23.609375
4.563058 2.281529 22.546875
4.583333 2.226191 22.000000
4.617188 2.180339 21.546875
4.638765 2.131324 21.062500
4.633370 2.072824 20.484375
4.682757 2.041202 20.171875
4.791667 2.036458 20.125000
4.861886 2.015904 19.921875
4.867188 1.970052 19.468750
4.875093 1.927362 19.046875
4.882069 1.886254 18.640625
4.888393 1.846726 18.250000
4.898623 1.810361 17.890625
4.904576 1.773996 17.531250
4.910714 1.739211 17.187500
4.912760 1.704427 16.843750
4.703776 1.599284 15.804688
4.707729 1.569243 15.507812
4.712984 1.540783 15.226562
4.717355 1.513114 14.953125
4.723493 1.487026 14.695312
4.726562 1.460938 14.437500
4.731771 1.436430 14.195312
4.736747 1.412714 13.960938
4.738932 1.388997 13.726562
4.743815 1.366862 13.507812
4.776786 1.353423 13.375000
4.836542 1.347889 13.320312
4.915830 1.347889 13.320312
4.980469 1.343936 13.281250
4.982143 1.323382 13.078125
5.038830 1.317848 13.023438
5.116351 1.317848 13.023438
5.193871 1.317848 13.023438
5.271391 1.317848 13.023438
5.348912 1.317848 13.023438
5.429688 1.318638 13.031250
5.507255 1.318638 13.031250
5.584821 1.318638 13.031250
5.662388 1.318638 13.031250
5.739955 1.318638 13.031250
5.817523 1.318638 13.031250
5.898623 1.319429 13.039062
5.976237 1.319429 13.039062
6.053851 1.319429 13.039062
6.131464 1.319429 13.039062
6.209077 1.319429 13.039062
6.286691 1.319429 13.039062
6.368117 1.320220 13.046875
6.445777 1.320220 13.046875
6.523438 1.320220 13.046875
6.601098 1.320220 13.046875
6.678758 1.320220 13.046875
6.756417 1.320220 13.046875
6.838170 1.321010 13.054688
6.915876 1.321010 13.054688
6.993583 1.321010 13.054688
7.071289 1.321010 13.054688
7.148995 1.321010 13.054688
7.226702 1.321010 13.054688
7.308780 1.321801 13.062500
7.386533 1.321801 13.062500
7.464286 1.321801 13.062500
7.542039 1.321801 13.062500
7.619792 1.321801 13.062500
7.697545 1.321801 13.062500
7.779948 1.322591 13.070312
7.857748 1.322591 13.070312
7.935547 1.322591 13.070312
8.013347 1.322591 13.070312
8.091146 1.322591 13.070312
8.168945 1.322591 13.070312
8.251674 1.323382 13.078125
8.329520 1.323382 13.078125
8.407366 1.323382 13.078125
8.485212 1.323382 13.078125
8.563058 1.323382 13.078125
8.640904 1.323382 13.078125
8.723958 1.324172 13.085938
8.801851 1.324172 13.085938
8.879744 1.324172 13.085938
8.957636 1.324172 13.085938
9.035528 1.324172 13.085938
9.113420 1.324172 13.085938
9.196800 1.324963 13.093750
9.274739 1.324963 13.093750
9.352678 1.324963 13.093750
9.430617 1.324963 13.093750
9.508556 1.324963 13.093750
9.586495 1.324963 13.093750
9.670201 1.325753 13.101562
9.748186 1.325753 13.101562
9.826172 1.325753 13.101562
9.904158 1.325753 13.101562
17.988094 2.389044 23.609375
18.128628 2.389044 23.609375
18.269159 2.389044 23.609375
18.397507 2.387463 23.593750
18.390625 2.368490 23.406250
18.393881 2.351098 23.234375
18.407553 2.335286 23.078125
18.406809 2.317894 22.906250
18.404018 2.300502 22.734375
18.411922 2.284691 22.578125
18.417969 2.268880 22.421875
18.422153 2.253069 22.265625
18.424479 2.237258 22.109375
18.424944 2.221447 21.953125
18.423550 2.205636 21.796875
18.420294 2.189825 21.640625
18.428572 2.175595 21.500000
18.435175 2.161365 21.359375
18.440104 2.147135 21.218750
18.443359 2.132905 21.078125
18.444941 2.118676 20.937500
18.444847 2.104446 20.796875
18.443081 2.090216 20.656250
18.439640 2.075986 20.515625
18.448660 2.063337 20.390625
18.456194 2.050688 20.265625
18.447916 2.036458 20.125000
18.452381 2.023809 20.000000
18.455357 2.011161 19.875000
18.456844 1.998512 19.750000
18.456844 1.985863 19.625000
18.470144 1.974795 19.515625
18.467262 1.962147 19.390625
18.462891 1.949498 19.265625
18.472097 1.938430 19.156250
18.464844 1.925781 19.031250
18.471354 1.914714 18.921875
18.476562 1.903646 18.812500
18.480469 1.892578 18.703125
18.483072 1.881510 18.593750
-3.736328 0.400321 3.736328
-3.735445 0.402623 3.757812
-3.736235 0.405134 3.781250
-3.736747 0.407645 3.804688
-3.736979 0.410156 3.828125
-3.738828 0.412877 3.853516
-3.738491 0.415388 3.876953
-3.737874 0.417899 3.900391
-3.738839 0.420619 3.925781
-3.739502 0.423340 3.951172
-3.739862 0.426060 3.976562
-3.738095 0.428571 4.000000
-3.739676 0.431501 4.027344
-3.740932 0.434431 4.054688
-3.741862 0.437360 4.082031
-3.742466 0.440290 4.109375
-3.555432 0.421038 3.929688
-3.532041 0.421038 3.929688
-3.510393 0.421247 3.931641
-3.488723 0.421456 3.933594
-3.473912 0.422503 3.943359
-3.460693 0.423758 3.955078
-3.447335 0.425014 3.966797
-3.433838 0.426270 3.978516
-3.423549 0.427944 3.994141
-3.414737 0.429827 4.011719
-3.407366 0.431920 4.031250
-3.403041 0.434431 4.054688
-3.401693 0.437360 4.082031
-3.403250 0.440709 4.113281
-3.404436 0.444057 4.144531
-3.402065 0.446987 4.171875
-3.402530 0.450335 4.203125
-3.405762 0.454102 4.238281
-3.405459 0.457450 4.269531
-3.404785 0.460798 4.300781
-3.406808 0.464565 4.335938
-3.405366 0.467913 4.367188
-3.406575 0.471680 4.402344
-3.407366 0.475446 4.437500
-3.407738 0.479213 4.472656
-3.407691 0.482980 4.507812
-3.407227 0.486747 4.542969
-3.409250 0.490932 4.582031
-3.407924 0.494699 4.617188
-3.409040 0.498884 4.656250
-3.409691 0.503069 4.695312
-3.409877 0.507254 4.734375
-3.412388 0.511858 4.777344
-3.411621 0.516044 4.816406
-3.391183 0.517299 4.828125
-3.370605 0.518555 4.839844
-3.360677 0.521484 4.867188
-3.353097 0.524833 4.898438
-3.353097 0.529436 4.941406
-3.355213 0.534459 4.988281
-3.354167 0.539062 5.031250
-3.355190 0.544085 5.078125
-3.355655 0.549107 5.125000
-3.355562 0.554129 5.171875
-3.354911 0.559152 5.218750
-3.353702 0.564174 5.265625
-3.354399 0.569615 5.316406
-3.356934 0.575474 5.371094
-3.358817 0.581334 5.425781
-3.357654 0.586775 5.476562
-3.358259 0.592634 5.531250
-3.358212 0.598493 5.585938
-3.359840 0.604771 5.644531
-3.358468 0.610631 5.699219
-3.358724 0.616908 5.757812
-3.360538 0.623605 5.820312
-3.359375 0.629883 5.878906
-3.359724 0.636579 5.941406
-3.361514 0.643694 6.007812
-3.360352 0.650391 6.070312
-3.360584 0.657506 6.136719
-3.362142 0.665039 6.207031
-3.360770 0.672154 6.273438
-3.362746 0.680106 6.347656
-3.361793 0.687640 6.417969
-3.362026 0.695592 6.492188
-3.363374 0.703962 6.570312
-3.363793 0.712333 6.648438
-3.363281 0.720703 6.726562
-3.363770 0.729492 6.808594
-3.363281 0.738281 6.890625
-3.363700 0.747489 6.976562
-3.364955 0.757115 7.066406
-3.365141 0.766741 7.156250
-3.366071 0.776786 7.250000
-3.365885 0.786830 7.343750
-3.366350 0.797294 7.441406
-3.365653 0.807757 7.539062
-3.367234 0.819057 7.644531
-3.367559 0.830357 7.750000
-3.368304 0.842076 7.859375
-3.367746 0.853795 7.968750
-3.369141 0.866350 8.085938
-3.365932 0.878069 8.195312
-3.364583 0.890625 8.312500
-3.361840 0.903181 8.429688
-3.360770 0.916574 8.554688
-3.361235 0.930804 8.687500
-3.419643 0.961775 8.976562
-3.418945 0.976842 9.117188
-3.422340 0.993583 9.273438
-3.423875 1.010324 9.429688
-3.423549 1.027065 9.585938
-3.865839 1.179408 11.007812
-3.867746 1.200335 11.203125
-3.872628 1.222935 11.414062
-3.877604 1.246373 11.632812
-3.879976 1.269810 11.851562
-3.884766 1.294922 12.085938
-3.889230 1.320871 12.328125
-3.893229 1.347656 12.578125
-3.898996 1.376116 12.843750
-3.903925 1.405413 13.117188
-3.907878 1.435547 13.398438
-3.912946 1.467355 13.695312
-3.918852 1.500837 14.007812
-3.925316 1.535993 14.335938
-3.932059 1.572824 14.679688
-3.936756 1.610491 15.031250
-3.945266 1.651507 15.414062
-3.951172 1.693359 15.804688
-3.958147 1.737723 16.218750
-3.965774 1.784598 16.656250
-3.975446 1.834821 17.125000
-3.983073 1.886719 17.609375
-3.991816 1.941964 18.125000
-4.001116 2.000558 18.671875
-4.013672 2.064174 19.265625
-4.022321 2.129464 19.875000
-4.035993 2.201451 20.546875
-4.047619 2.276786 21.250000
-4.062407 2.358817 22.015625
-3.981585 2.388951 22.296875
-3.848865 2.388951 22.296875
-3.716146 2.388951 22.296875
-3.583426 2.388951 22.296875
-3.450707 2.388951 22.296875
-3.317987 2.388951 22.296875
-3.185268 2.388951 22.296875
-3.052548 2.388951 22.296875
-2.919829 2.388951 22.296875
-2.787109 2.388951 22.296875
-2.654390 2.388951 22.296875
-2.521670 2.388951 22.296875
-2.388951 2.388951 22.296875
-2.256231 2.388951 22.296875
-2.123512 2.388951 22.296875
-1.990792 2.388951 22.296875
-1.858073 2.388951 22.296875
-1.725353 2.388951 22.296875
-1.592634 2.388951 22.296875
-1.459914 2.388951 22.296875
-1.327195 2.388951 22.296875
-1.194475 2.388951 22.296875
-1.061756 2.388951 22.296875
-0.929036 2.388951 22.296875
-0.796317 2.388951 22.296875
-0.663597 2.388951 22.296875
-0.530878 2.388951 22.296875
-0.398158 2.388951 22.296875
-0.265439 2.388951 22.296875
-0.132719 2.388951 22.296875
0.000000 2.388951 22.296875
0.132719 2.388951 22.296875
0.265439 2.388951 22.296875
0.398158 2.388951 22.296875
0.530878 2.388951 22.296875
0.663597 2.388951 22.296875
0.796317 2.388951 22.296875
0.929036 2.388951 22.296875
1.061756 2.388951 22.296875
1.194475 2.388951 22.296875
1.327195 2.388951 22.296875
1.459914 2.388951 22.296875
1.592634 2.388951 22.296875
1.725353 2.388951 22.296875
1.858073 2.388951 22.296875
1.990792 2.388951 22.296875
2.123512 2.388951 22.296875
2.256231 2.388951 22.296875
2.388951 2.388951 22.296875
2.521670 2.388951 22.296875
2.654390 2.388951 22.296875
2.787109 2.388951 22.296875
2.919829 2.388951 22.296875
3.052548 2.388951 22.296875
3.185268 2.388951 22.296875
3.317987 2.388951 22.296875
3.450707 2.388951 22.296875
3.583426 2.388951 22.296875
3.716146 2.388951 22.296875
3.848865 2.388951 22.296875
3.981585 2.388951 22.296875
4.114305 2.388951 22.296875
4.247024 2.388951 22.296875
4.379743 2.388951 22.296875
4.512463 2.388951 22.296875
4.576823 2.353795 21.968750
4.583705 2.291853 21.390625
4.597470 2.236607 20.875000
4.629836 2.193080 20.468750
4.682757 2.161272 20.171875
4.791667 2.156250 20.125000
4.861886 2.134487 19.921875
4.867188 2.085938 19.468750
4.875093 2.040737 19.046875
4.882069 1.997210 18.640625
4.888393 1.955357 18.250000
4.898623 1.916853 17.890625
4.904576 1.878348 17.531250
4.910714 1.841518 17.187500
4.912760 1.804688 16.843750
4.703776 1.693359 15.804688
4.707729 1.661551 15.507812
4.712984 1.631417 15.226562
4.717355 1.602121 14.953125
4.723493 1.574498 14.695312
4.726562 1.546875 14.437500
4.731771 1.520926 14.195312
4.736747 1.495815 13.960938
4.738932 1.470703 13.726562
4.743815 1.447266 13.507812
4.776786 1.433036 13.375000
4.836542 1.427176 13.320312
4.915830 1.427176 13.320312
4.980469 1.422991 13.281250
4.982143 1.401228 13.078125
5.038830 1.395368 13.023438
5.116351 1.395368 13.023438
5.193871 1.395368 13.023438
5.271391 1.395368 13.023438
5.348912 1.395368 13.023438
5.429688 1.396205 13.031250
5.507255 1.396205 13.031250
5.584821 1.396205 13.031250
5.662388 1.396205 13.031250
5.739955 1.396205 13.031250
5.817523 1.396205 13.031250
5.898623 1.397042 13.039062
5.976237 1.397042 13.039062
6.053851 1.397042 13.039062
6.131464 1.397042 13.039062
6.209077 1.397042 13.039062
6.286691 1.397042 13.039062
6.368117 1.397879 13.046875
6.445777 1.397879 13.046875
6.523438 1.397879 13.046875
6.601098 1.397879 13.046875
6.678758 1.397879 13.046875
6.756417 1.397879 13.046875
6.838170 1.398717 13.054688
6.915876 1.398717 13.054688
6.993583 1.398717 13.054688
7.071289 1.398717 13.054688
7.148995 1.398717 13.054688
7.226702 1.398717 13.054688
7.308780 1.399554 13.062500
7.386533 1.399554 13.062500
7.464286 1.399554 13.062500
7.542039 1.399554 13.062500
7.619792 1.399554 13.062500
7.697545 1.399554 13.062500
7.779948 1.400391 13.070312
7.857748 1.400391 13.070312
7.935547 1.400391 13.070312
8.013347 1.400391 13.070312
8.091146 1.400391 13.070312
8.168945 1.400391 13.070312
8.251674 1.401228 13.078125
8.329520 1.401228 13.078125
8.407366 1.401228 13.078125
8.485212 1.401228 13.078125
8.563058 1.401228 13.078125
8.640904 1.401228 13.078125
8.718750 1.401228 13.078125
8.801851 1.402065 13.085938
8.879744 1.402065 13.085938
8.957636 1.402065 13.085938
9.035528 1.402065 13.085938
9.113420 1.402065 13.085938
9.191313 1.402065 13.085938
9.274739 1.402902 13.093750
9.352678 1.402902 13.093750
9.430617 1.402902 13.093750
9.508556 1.402902 13.093750
9.586495 1.402902 13.093750
9.664434 1.402902 13.093750
9.748186 1.403739 13.101562
9.826172 1.403739 13.101562
9.904158 1.403739 13.101562
16.988094 2.388951 22.296875
17.120815 2.388951 22.296875
17.253534 2.388951 22.296875
17.386253 2.388951 22.296875
17.518972 2.388951 22.296875
17.651693 2.388951 22.296875
17.784412 2.388951 22.296875
17.917131 2.388951 22.296875
18.049850 2.388951 22.296875
18.182571 2.388951 22.296875
18.315290 2.388951 22.296875
18.422153 2.385603 22.265625
18.424479 2.368862 22.109375
18.424944 2.352121 21.953125
18.423550 2.335379 21.796875
18.420294 2.318638 21.640625
18.428572 2.303571 21.500000
18.435175 2.288504 21.359375
18.440104 2.273438 21.218750
18.443359 2.258371 21.078125
18.444941 2.243304 20.937500
18.444847 2.228237 20.796875
18.443081 2.213170 20.656250
18.439640 2.198103 20.515625
18.448660 2.184710 20.390625
18.456194 2.171317 20.265625
18.447916 2.156250 20.125000
18.452381 2.142857 20.000000
18.455357 2.129464 19.875000
18.456844 2.116071 19.750000
18.456844 2.102679 19.625000
18.470144 2.090960 19.515625
18.467262 2.077567 19.390625
18.462891 2.064174 19.265625
18.472097 2.052455 19.156250
18.464844 2.039062 19.031250
18.471354 2.027344 18.921875
18.476562 2.015625 18.812500
18.480469 2.003906 18.703125
18.483072 1.992188 18.593750
-3.736328 0.422561 3.736328
-3.735445 0.424991 3.757812
-3.736235 0.427641 3.781250
-3.736747 0.430292 3.804688
-3.736979 0.432943 3.828125
-3.738828 0.435814 3.853516
-3.738491 0.438465 3.876953
-3.737874 0.441116 3.900391
-3.738839 0.443987 3.925781
-3.739502 0.446859 3.951172
-3.739862 0.449730 3.976562
-3.738095 0.452381 4.000000
-3.739676 0.455473 4.027344
-3.740932 0.458566 4.054688
-3.741862 0.461658 4.082031
-3.742466 0.464751 4.109375
-3.558966 0.444871 3.933594
-3.532041 0.444429 3.929688
-3.510393 0.444650 3.931641
-3.486991 0.444650 3.931641
-3.473912 0.445975 3.943359
-3.458984 0.447080 3.953125
-3.445638 0.448405 3.964844
-3.432152 0.449730 3.976562
-3.420201 0.451277 3.990234
-3.411412 0.453265 4.007812
-3.404064 0.455473 4.027344
-3.399763 0.458124 4.050781
-3.398438 0.461217 4.078125
-3.400019 0.464751 4.109375
-3.398019 0.467843 4.136719
-3.398879 0.471377 4.167969
-3.399368 0.474912 4.199219
-3.399484 0.478446 4.230469
-3.402344 0.482422 4.265625
-3.401693 0.485956 4.296875
-3.400670 0.489490 4.328125
-3.402320 0.493466 4.363281
-3.403553 0.497442 4.398438
-3.404367 0.501418 4.433594
-3.404762 0.505394 4.468750
-3.404739 0.509370 4.503906
-3.404297 0.513346 4.539062
-3.403437 0.517322 4.574219
-3.405041 0.521740 4.613281
-3.406180 0.526158 4.652344
-3.406855 0.530576 4.691406
-3.407064 0.534993 4.730469
-3.406808 0.539411 4.769531
-3.406087 0.543829 4.808594
-3.391183 0.546038 4.828125
-3.370605 0.547363 4.839844
-3.357980 0.550014 4.863281
-3.350423 0.553548 4.894531
-3.350446 0.558408 4.937500
-3.349958 0.563267 4.980469
-3.348958 0.568127 5.023438
-3.350028 0.573428 5.070312
-3.350539 0.578730 5.117188
-3.350493 0.584031 5.164062
-3.349888 0.589332 5.210938
-3.351214 0.595075 5.261719
-3.351934 0.600818 5.312500
-3.352051 0.606562 5.363281
-3.353981 0.612746 5.417969
-3.355259 0.618931 5.472656
-3.353516 0.624674 5.523438
-3.353516 0.630859 5.578125
-3.355190 0.637486 5.636719
-3.353864 0.643671 5.691406
-3.354167 0.650298 5.750000
-3.356027 0.657366 5.812500
-3.354911 0.663993 5.871094
-3.355306 0.671061 5.933594
-3.354957 0.678130 5.996094
-3.356027 0.685640 6.062500
-3.356306 0.693150 6.128906
-3.355794 0.700660 6.195312
-3.356585 0.708612 6.265625
-3.356538 0.716564 6.335938
-3.357701 0.724958 6.410156
-3.357980 0.733352 6.484375
-3.357375 0.741746 6.558594
-3.357864 0.750581 6.636719
-3.357422 0.759417 6.714844
-3.357980 0.768694 6.796875
-3.359468 0.778413 6.882812
-3.358050 0.787691 6.964844
-3.359375 0.797852 7.054688
-3.359631 0.808012 7.144531
-3.358817 0.818173 7.234375
-3.360514 0.829218 7.332031
-3.359282 0.839821 7.425781
-3.360421 0.851307 7.527344
-3.360352 0.862793 7.628906
-3.360770 0.874721 7.734375
-3.361607 0.887091 7.843750
-3.361142 0.899461 7.953125
-3.362630 0.912714 8.070312
-3.359514 0.925084 8.179688
-3.358259 0.938337 8.296875
-3.355608 0.951590 8.414062
-3.351562 0.964844 8.531250
-3.352167 0.979864 8.664062
-3.410714 1.012556 8.953125
-3.413086 1.029343 9.101562
-3.413691 1.046131 9.250000
-3.415365 1.063802 9.406250
-3.417969 1.082357 9.570312
-3.865839 1.244931 11.007812
-3.867746 1.267020 11.203125
-3.872628 1.290876 11.414062
-3.877604 1.315616 11.632812
-3.879976 1.340355 11.851562
-3.884766 1.366862 12.085938
-3.889230 1.394252 12.328125
-3.893229 1.422526 12.578125
-3.898996 1.452567 12.843750
-3.903925 1.483491 13.117188
-3.907878 1.515299 13.398438
-3.912946 1.548875 13.695312
-3.918852 1.584217 14.007812
-3.925316 1.621326 14.335938
-3.932059 1.660203 14.679688
-3.936756 1.699963 15.031250
-3.945266 1.743257 15.414062
-3.951172 1.787435 15.804688
-3.958147 1.834263 16.218750
-3.965774 1.883743 16.656250
-3.975446 1.936756 17.125000
-3.983073 1.991536 17.609375
-3.991816 2.049851 18.125000
-4.001116 2.111700 18.671875
-4.013672 2.178850 19.265625
-4.022321 2.247768 19.875000
-4.035993 2.323754 20.546875
-4.023809 2.389137 21.125000
-3.898066 2.389137 21.125000
-3.772321 2.389137 21.125000
-3.646577 2.389137 21.125000
-3.520833 2.389137 21.125000
-3.395089 2.389137 21.125000
-3.269345 2.389137 21.125000
-3.143601 2.389137 21.125000
-3.017857 2.389137 21.125000
-2.892113 2.389137 21.125000
-2.766369 2.389137 21.125000
-2.640625 2.389137 21.125000
-2.514881 2.389137 21.125000
-2.389137 2.389137 21.125000
-2.263393 2.389137 21.125000
-2.137649 2.389137 21.125000
-2.011905 2.389137 21.125000
-1.886161 2.389137 21.125000
-1.760417 2.389137 21.125000
-1.634673 2.389137 21.125000
-1.508929 2.389137 21.125000
-1.383185 2.389137 21.125000
-1.257440 2.389137 21.125000
-1.131696 2.389137 21.125000
-1.005952 2.389137 21.125000
-0.880208 2.389137 21.125000
-0.754464 2.389137 21.125000
-0.628720 2.389137 21.125000
-0.502976 2.389137 21.125000
-0.377232 2.389137 21.125000
-0.251488 2.389137 21.125000
-0.125744 2.389137 21.125000
0.000000 2.389137 21.125000
0.125744 2.389137 21.125000
0.251488 2.389137 21.125000
0.377232 2.389137 21.125000
0.502976 2.389137 21.125000
0.628720 2.389137 21.125000
0.754464 2.389137 21.125000
0.880208 2.389137 21.125000
1.005952 2.389137 21.125000
1.131696 2.389137 21.125000
1.257440 2.389137 21.125000
1.383185 2.389137 21.125000
1.508929 2.389137 21.125000
1.634673 2.389137 21.125000
1.760417 2.389137 21.125000
1.886161 2.389137 21.125000
2.011905 2.389137 21.125000
2.137649 2.389137 21.125000
2.263393 2.389137 21.125000
2.389137 2.389137 21.125000
2.514881 2.389137 21.125000
2.640625 2.389137 21.125000
2.766369 2.389137 21.125000
2.892113 2.389137 21.125000
3.017857 2.389137 21.125000
3.143601 2.389137 21.125000
3.269345 2.389137 21.125000
3.395089 2.389137 21.125000
3.520833 2.389137 21.125000
3.646577 2.389137 21.125000
3.772321 2.389137 21.125000
3.898066 2.389137 21.125000
4.023809 2.389137 21.125000
4.149554 2.389137 21.125000
4.275298 2.389137 21.125000
4.401042 2.389137 21.125000
4.526786 2.389137 21.125000
4.611235 2.367932 20.937500
4.601562 2.300781 20.343750
4.682757 2.281343 20.171875
4.791667 2.276042 20.125000
5.155506 2.389137 21.125000
5.281250 2.389137 21.125000
4.875093 2.154111 19.046875
4.882069 2.108166 18.640625
4.888393 2.063988 18.250000
4.898623 2.023345 17.890625
4.904576 1.982701 17.531250
4.910714 1.943824 17.187500
4.912760 1.904948 16.843750
4.703776 1.787435 15.804688
4.707729 1.753860 15.507812
4.712984 1.722052 15.226562
4.717355 1.691127 14.953125
4.723493 1.661970 14.695312
4.726562 1.632812 14.437500
4.731771 1.605422 14.195312
4.736747 1.578916 13.960938
4.738932 1.552409 13.726562
4.743815 1.527669 13.507812
4.776786 1.512649 13.375000
4.836542 1.506464 13.320312
4.915830 1.506464 13.320312
4.980469 1.502046 13.281250
4.982143 1.479074 13.078125
5.038830 1.472889 13.023438
5.116351 1.472889 13.023438
5.193871 1.472889 13.023438
5.271391 1.472889 13.023438
5.348912 1.472889 13.023438
5.429688 1.473772 13.031250
5.507255 1.473772 13.031250
