8.486049 -2.064174 12.843750
8.562500 -2.064174 12.843750
8.638951 -2.064174 12.843750
8.715402 -2.064174 12.843750
8.791853 -2.064174 12.843750
8.868303 -2.064174 12.843750
8.944755 -2.064174 12.843750
9.021205 -2.064174 12.843750
9.092122 -2.062918 12.835938
9.168527 -2.062918 12.835938
9.244931 -2.062918 12.835938
9.321336 -2.062918 12.835938
9.397740 -2.062918 12.835938
9.474144 -2.062918 12.835938
9.550549 -2.062918 12.835938
9.626953 -2.062918 12.835938
9.703358 -2.062918 12.835938
9.773809 -2.061663 12.828125
9.850167 -2.061663 12.828125
9.926525 -2.061663 12.828125
10.002883 -2.061663 12.828125
10.079241 -2.061663 12.828125
10.155599 -2.061663 12.828125
10.231956 -2.061663 12.828125
10.308314 -2.061663 12.828125
19.049107 -3.781808 23.531250
19.049015 -3.754185 23.359375
19.046875 -3.726562 23.187500
19.055618 -3.701451 23.031250
19.049479 -3.673828 22.859375
19.041294 -3.646205 22.687500
19.044271 -3.621094 22.531250
19.045387 -3.595982 22.375000
19.044643 -3.570871 22.218750
19.042038 -3.545759 22.062500
19.037575 -3.520647 21.906250
19.031250 -3.495536 21.750000
19.036831 -3.472935 21.609375
19.026878 -3.447824 21.453125
19.029018 -3.425223 21.312500
19.029484 -3.402623 21.171875
19.028275 -3.380022 21.031250
19.025391 -3.357422 20.890625
19.020834 -3.334821 20.750000
19.029018 -3.314732 20.625000
19.021206 -3.292132 20.484375
19.026321 -3.272043 20.359375
19.015253 -3.249442 20.218750
19.017300 -3.229353 20.093750
19.017857 -3.209263 19.968750
19.016928 -3.189174 19.843750
19.014509 -3.169085 19.718750
19.010603 -3.148996 19.593750
19.020462 -3.131418 19.484375
19.013672 -3.111328 19.359375
19.005394 -3.091239 19.234375
19.011160 -3.073661 19.125000
-3.619141 -0.560105 3.619141
-3.618955 -0.563430 3.640625
-3.620443 -0.567057 3.664062
-3.619734 -0.570382 3.685547
-3.618769 -0.573707 3.707031
-3.619443 -0.577334 3.730469
-3.617955 -0.580659 3.751953
-3.618083 -0.584287 3.775391
-3.617932 -0.587914 3.798828
-3.617501 -0.591541 3.822266
-3.618629 -0.595471 3.847656
-3.617629 -0.599098 3.871094
-3.618164 -0.603027 3.896484
-3.616595 -0.606655 3.919922
-3.616536 -0.610584 3.945312
-3.616176 -0.614514 3.970703
-3.617280 -0.618745 3.998047
-3.616304 -0.622675 4.023438
-3.616769 -0.626907 4.050781
-3.613444 -0.630534 4.074219
-3.613281 -0.634766 4.101562
-3.612793 -0.638997 4.128906
-3.615374 -0.643834 4.160156
-3.614211 -0.648065 4.187500
-3.612723 -0.652297 4.214844
-3.614234 -0.657134 4.246094
-3.612072 -0.661365 4.273438
-3.612863 -0.666202 4.304688
-3.613281 -0.671038 4.335938
-3.613328 -0.675874 4.367188
-3.613002 -0.680711 4.398438
-3.612305 -0.685547 4.429688
-3.611235 -0.690383 4.460938
-3.609793 -0.695220 4.492188
-3.611096 -0.700660 4.527344
-3.608887 -0.705497 4.558594
-3.609375 -0.710938 4.593750
-3.609445 -0.716378 4.628906
-3.609096 -0.721819 4.664062
-3.608329 -0.727260 4.699219
-3.610119 -0.733305 4.738281
-3.608491 -0.738746 4.773438
-3.609375 -0.744792 4.812500
-3.606887 -0.750233 4.847656
-3.606864 -0.756278 4.886719
-3.606375 -0.762323 4.925781
-3.605422 -0.768369 4.964844
-3.606817 -0.775019 5.007812
-3.604911 -0.781064 5.046875
-3.605306 -0.787714 5.089844
-3.605190 -0.794364 5.132812
-3.604562 -0.801014 5.175781
-3.603423 -0.807664 5.218750
-3.604446 -0.814918 5.265625
-3.602260 -0.821568 5.308594
-3.602190 -0.828823 5.355469
-3.601562 -0.836077 5.402344
-3.602957 -0.843936 5.453125
-3.601191 -0.851190 5.500000
-3.601400 -0.859049 5.550781
-3.601004 -0.866908 5.601562
-3.600005 -0.874767 5.652344
-3.598400 -0.882626 5.703125
-3.598633 -0.891090 5.757812
-3.598214 -0.899554 5.812500
-3.597145 -0.908017 5.867188
-3.597796 -0.917085 5.925781
-3.597749 -0.926153 5.984375
-3.597005 -0.935221 6.042969
-3.595564 -0.944289 6.101562
-3.595703 -0.953962 6.164062
-3.595098 -0.963635 6.226562
-3.593750 -0.973307 6.289062
-3.593866 -0.983584 6.355469
-3.593192 -0.993862 6.421875
-3.591727 -1.004139 6.488281
-3.591611 -1.015020 6.558594
-3.590657 -1.025902 6.628906
-3.590960 -1.037388 6.703125
-3.590379 -1.048875 6.777344
-3.588914 -1.060361 6.851562
-3.588588 -1.072452 6.929688
-3.587332 -1.084542 7.007812
-3.587123 -1.097238 7.089844
-3.585938 -1.109933 7.171875
-3.585705 -1.123233 7.257812
-3.584449 -1.136533 7.343750
-3.582171 -1.149833 7.429688
-3.582589 -1.164342 7.523438
-3.581892 -1.178850 7.617188
-3.580078 -1.193359 7.710938
-3.578939 -1.208473 7.808594
-3.578404 -1.224191 7.910156
-3.578404 -1.240513 8.015625
-3.575428 -1.256231 8.117188
-3.574637 -1.273158 8.226562
-3.572545 -1.290086 8.335938
-3.572452 -1.308222 8.453125
-3.570964 -1.326358 8.570312
-3.571289 -1.345703 8.695312
-3.570127 -1.365048 8.820312
-3.567476 -1.384394 8.945312
-3.566406 -1.404948 9.078125
-3.563756 -1.425502 9.210938
-3.562500 -1.447266 9.351562
-3.562500 -1.470238 9.500000
-3.560733 -1.493211 9.648438
-3.560035 -1.517392 9.804688
-3.557478 -1.541574 9.960938
-3.555804 -1.566964 10.125000
-3.554873 -1.593564 10.296875
-3.554548 -1.621373 10.476562
-3.552083 -1.649182 10.656250
-3.550037 -1.678199 10.843750
-3.548270 -1.708426 11.039062
-3.546643 -1.739862 11.242188
-3.545015 -1.772507 11.453125
-3.540876 -1.805153 11.664062
-3.538877 -1.840216 11.890625
-3.536458 -1.876488 12.125000
-3.535714 -1.915179 12.375000
-3.531994 -1.953869 12.625000
-3.529576 -1.994978 12.890625
-3.528181 -2.038504 13.171875
-3.525484 -2.083240 13.460938
-3.521345 -2.129185 13.757812
-3.519531 -2.178757 14.078125
-3.515811 -2.229539 14.406250
-3.511905 -2.282738 14.750000
-3.509347 -2.339565 15.117188
-3.505952 -2.398809 15.500000
-3.501441 -2.460473 15.898438
-3.495536 -2.524554 16.312500
-3.492839 -2.594680 16.765625
-3.487909 -2.667225 17.234375
-3.483538 -2.744606 17.734375
-3.479167 -2.826823 18.265625
-3.471354 -2.911458 18.812500
-3.462612 -3.000930 19.390625
-3.347191 -3.000930 19.390625
-3.359375 -3.119420 20.156250
-3.277065 -3.155692 20.390625
-3.438616 -3.438616 22.218750
-3.431920 -3.569196 23.062500
-3.421875 -3.707031 23.953125
-3.414062 -3.859375 24.937500
-3.402716 -4.021391 25.984375
-3.392578 -4.200335 27.140625
-3.379836 -4.393787 28.390625
-3.366350 -4.606585 29.765625
-3.306362 -4.775856 30.859375
-3.121094 -4.773438 30.843750
-2.937500 -4.773438 30.843750
-2.753906 -4.773438 30.843750
-2.570312 -4.773438 30.843750
-2.386719 -4.773438 30.843750
-2.203125 -4.773438 30.843750
-2.019531 -4.773438 30.843750
-1.835007 -4.771019 30.828125
-1.651507 -4.771019 30.828125
-1.468006 -4.771019 30.828125
-1.284505 -4.771019 30.828125
-1.101004 -4.771019 30.828125
-0.917504 -4.771019 30.828125
-0.734003 -4.771019 30.828125
-0.550502 -4.771019 30.828125
-0.366815 -4.768601 30.812500
-0.183408 -4.768601 30.812500
0.000000 -4.768601 30.812500
0.183408 -4.768601 30.812500
0.366815 -4.768601 30.812500
0.550223 -4.768601 30.812500
0.733631 -4.768601 30.812500
0.917039 -4.768601 30.812500
1.099888 -4.766183 30.796875
1.283203 -4.766183 30.796875
1.466518 -4.766183 30.796875
1.649833 -4.766183 30.796875
1.833147 -4.766183 30.796875
2.016462 -4.766183 30.796875
2.199777 -4.766183 30.796875
2.381882 -4.763765 30.781250
2.565104 -4.763765 30.781250
2.748326 -4.763765 30.781250
2.931548 -4.763765 30.781250
3.114769 -4.763765 30.781250
3.297991 -4.763765 30.781250
3.481213 -4.763765 30.781250
3.664434 -4.763765 30.781250
3.845703 -4.761347 30.765625
4.028832 -4.761347 30.765625
4.211961 -4.761347 30.765625
4.395089 -4.761347 30.765625
4.578218 -4.761347 30.765625
4.761347 -4.761347 30.765625
4.944476 -4.761347 30.765625
5.125000 -4.758929 30.750000
5.308036 -4.758929 30.750000
5.491071 -4.758929 30.750000
5.674107 -4.758929 30.750000
5.857143 -4.758929 30.750000
6.040179 -4.758929 30.750000
6.223214 -4.758929 30.750000
6.406250 -4.758929 30.750000
6.585938 -4.756510 30.734375
6.768880 -4.756510 30.734375
6.951823 -4.756510 30.734375
5.458984 -3.639323 23.515625
5.450149 -3.542597 22.890625
5.445312 -3.453125 22.312500
5.441406 -3.368490 21.765625
5.434989 -3.286272 21.234375
5.430431 -3.208891 20.734375
5.424107 -3.133929 20.250000
5.420573 -3.063802 19.796875
5.416016 -2.996094 19.359375
5.415179 -2.933222 18.953125
5.409505 -2.870350 18.546875
5.403646 -2.809896 18.156250
5.402623 -2.754278 17.796875
5.397321 -2.698661 17.437500
5.392671 -2.645461 17.093750
5.393973 -2.597098 16.781250
5.386440 -2.546317 16.453125
5.385417 -2.500372 16.156250
5.383510 -2.455636 15.867188
5.380859 -2.412109 15.585938
5.377604 -2.369792 15.312500
5.376674 -2.329892 15.054688
5.372675 -2.289993 14.796875
5.166667 -2.166667 14.000000
5.165039 -2.131603 13.773438
5.160714 -2.096540 13.546875
5.159738 -2.063895 13.335938
5.177734 -2.039714 13.179688
5.256185 -2.039714 13.179688
5.334635 -2.039714 13.179688
5.355329 -2.017950 13.039062
5.367838 -1.993769 12.882812
5.444522 -1.993769 12.882812
5.521205 -1.993769 12.882812
5.594494 -1.992560 12.875000
5.671131 -1.992560 12.875000
5.747768 -1.992560 12.875000
5.824405 -1.992560 12.875000
5.901042 -1.992560 12.875000
5.977679 -1.992560 12.875000
6.054316 -1.992560 12.875000
6.130952 -1.992560 12.875000
6.207589 -1.992560 12.875000
6.280413 -1.991350 12.867188
6.357003 -1.991350 12.867188
6.433594 -1.991350 12.867188
6.510184 -1.991350 12.867188
6.586774 -1.991350 12.867188
6.663365 -1.991350 12.867188
6.739955 -1.991350 12.867188
6.816546 -1.991350 12.867188
6.893136 -1.991350 12.867188
6.965495 -1.990141 12.859375
7.042039 -1.990141 12.859375
7.118583 -1.990141 12.859375
7.195127 -1.990141 12.859375
7.271670 -1.990141 12.859375
7.348214 -1.990141 12.859375
7.424758 -1.990141 12.859375
7.501302 -1.990141 12.859375
7.577846 -1.990141 12.859375
7.649740 -1.988932 12.851562
7.726237 -1.988932 12.851562
7.802734 -1.988932 12.851562
7.879232 -1.988932 12.851562
7.955729 -1.988932 12.851562
8.032227 -1.988932 12.851562
8.108724 -1.988932 12.851562
8.185222 -1.988932 12.851562
8.261719 -1.988932 12.851562
8.338216 -1.988932 12.851562
8.409598 -1.987723 12.843750
8.486049 -1.987723 12.843750
8.562500 -1.987723 12.843750
8.638951 -1.987723 12.843750
8.715402 -1.987723 12.843750
8.791853 -1.987723 12.843750
8.868303 -1.987723 12.843750
8.944755 -1.987723 12.843750
9.021205 -1.987723 12.843750
9.092122 -1.986514 12.835938
9.168527 -1.986514 12.835938
9.244931 -1.986514 12.835938
9.321336 -1.986514 12.835938
9.397740 -1.986514 12.835938
9.474144 -1.986514 12.835938
9.550549 -1.986514 12.835938
9.626953 -1.986514 12.835938
9.703358 -1.986514 12.835938
9.773809 -1.985305 12.828125
9.850167 -1.985305 12.828125
9.926525 -1.985305 12.828125
10.002883 -1.985305 12.828125
10.079241 -1.985305 12.828125
10.155599 -1.985305 12.828125
10.231956 -1.985305 12.828125
10.308314 -1.985305 12.828125
19.049107 -3.641741 23.531250
19.049015 -3.615141 23.359375
19.046875 -3.588542 23.187500
19.055618 -3.564360 23.031250
19.049479 -3.537760 22.859375
19.041294 -3.511161 22.687500
19.044271 -3.486979 22.531250
19.045387 -3.462798 22.375000
19.044643 -3.438616 22.218750
19.042038 -3.414434 22.062500
19.037575 -3.390253 21.906250
19.031250 -3.366071 21.750000
19.036831 -3.344308 21.609375
19.026878 -3.320127 21.453125
19.029018 -3.298363 21.312500
19.029484 -3.276600 21.171875
19.028275 -3.254836 21.031250
19.025391 -3.233073 20.890625
19.020834 -3.211309 20.750000
19.029018 -3.191964 20.625000
19.021206 -3.170201 20.484375
19.026321 -3.150856 20.359375
19.015253 -3.129092 20.218750
19.017300 -3.109747 20.093750
19.017857 -3.090402 19.968750
19.016928 -3.071057 19.843750
19.014509 -3.051711 19.718750
19.010603 -3.032366 19.593750
19.020462 -3.015439 19.484375
19.013672 -2.996094 19.359375
19.005394 -2.976748 19.234375
19.011160 -2.959821 19.125000
-3.619141 -0.538563 3.619141
-3.618955 -0.541760 3.640625
-3.620443 -0.545247 3.664062
-3.619734 -0.548444 3.685547
-3.618769 -0.551642 3.707031
-3.619443 -0.555129 3.730469
-3.617955 -0.558326 3.751953
-3.618083 -0.561814 3.775391
-3.617932 -0.565302 3.798828
-3.617501 -0.568790 3.822266
-3.618629 -0.572568 3.847656
-3.617629 -0.576056 3.871094
-3.618164 -0.579834 3.896484
-3.616595 -0.583322 3.919922
-3.616536 -0.587100 3.945312
-3.616176 -0.590878 3.970703
-3.617280 -0.594947 3.998047
-3.616304 -0.598726 4.023438
-3.616769 -0.602795 4.050781
-3.613444 -0.606283 4.074219
-3.613281 -0.610352 4.101562
-3.612793 -0.614421 4.128906
-3.615374 -0.619071 4.160156
-3.614211 -0.623140 4.187500
-3.612723 -0.627209 4.214844
-3.614234 -0.631859 4.246094
-3.612072 -0.635928 4.273438
-3.612863 -0.640579 4.304688
-3.613281 -0.645229 4.335938
-3.613328 -0.649879 4.367188
-3.613002 -0.654529 4.398438
-3.612305 -0.659180 4.429688
-3.611235 -0.663830 4.460938
-3.609793 -0.668480 4.492188
-3.611096 -0.673712 4.527344
-3.608887 -0.678362 4.558594
-3.609375 -0.683594 4.593750
-3.609445 -0.688825 4.628906
-3.609096 -0.694057 4.664062
-3.608329 -0.699288 4.699219
-3.610119 -0.705101 4.738281
-3.608491 -0.710333 4.773438
-3.609375 -0.716146 4.812500
-3.606887 -0.721377 4.847656
-3.606864 -0.727190 4.886719
-3.606375 -0.733003 4.925781
-3.605422 -0.738816 4.964844
-3.606817 -0.745210 5.007812
-3.604911 -0.751023 5.046875
-3.605306 -0.757417 5.089844
-3.605190 -0.763811 5.132812
-3.604562 -0.770206 5.175781
-3.603423 -0.776600 5.218750
-3.604446 -0.783575 5.265625
-3.602260 -0.789969 5.308594
-3.602190 -0.796945 5.355469
-3.601562 -0.803920 5.402344
-3.602957 -0.811477 5.453125
-3.601191 -0.818452 5.500000
-3.601400 -0.826009 5.550781
-3.601004 -0.833566 5.601562
-3.600005 -0.841123 5.652344
-3.598400 -0.848679 5.703125
-3.598633 -0.856817 5.757812
-3.598214 -0.864955 5.812500
-3.597145 -0.873093 5.867188
-3.597796 -0.881813 5.925781
-3.597749 -0.890532 5.984375
-3.597005 -0.899251 6.042969
-3.595564 -0.907971 6.101562
-3.595703 -0.917271 6.164062
-3.595098 -0.926572 6.226562
-3.593750 -0.935872 6.289062
-3.593866 -0.945754 6.355469
-3.593192 -0.955636 6.421875
-3.591727 -0.965518 6.488281
-3.591611 -0.975981 6.558594
-3.590657 -0.986444 6.628906
-3.590960 -0.997489 6.703125
-3.590379 -1.008533 6.777344
-3.588914 -1.019578 6.851562
-3.588588 -1.031204 6.929688
-3.587332 -1.042829 7.007812
-3.587123 -1.055036 7.089844
-3.585938 -1.067243 7.171875
-3.585705 -1.080032 7.257812
-3.584449 -1.092820 7.343750
-3.582171 -1.105608 7.429688
-3.582589 -1.119559 7.523438
-3.581892 -1.133510 7.617188
-3.580078 -1.147461 7.710938
-3.578939 -1.161993 7.808594
-3.578404 -1.177107 7.910156
-3.578404 -1.192801 8.015625
-3.575428 -1.207915 8.117188
-3.574637 -1.224191 8.226562
-3.572545 -1.240467 8.335938
-3.572452 -1.257905 8.453125
-3.570964 -1.275344 8.570312
-3.571289 -1.293945 8.695312
-3.570127 -1.312546 8.820312
-3.567476 -1.331148 8.945312
-3.566406 -1.350911 9.078125
-3.563756 -1.370675 9.210938
-3.562500 -1.391602 9.351562
-3.562500 -1.413690 9.500000
-3.560733 -1.435779 9.648438
-3.560035 -1.459031 9.804688
-3.557478 -1.482282 9.960938
-3.555804 -1.506696 10.125000
-3.554873 -1.532273 10.296875
-3.554548 -1.559012 10.476562
-3.552083 -1.585752 10.656250
-3.550037 -1.613653 10.843750
-3.548270 -1.642718 11.039062
-3.546643 -1.672945 11.242188
-3.545015 -1.704334 11.453125
-3.540876 -1.735724 11.664062
-3.538877 -1.769438 11.890625
-3.536458 -1.804315 12.125000
-3.535714 -1.841518 12.375000
-3.531994 -1.878720 12.625000
-3.529576 -1.918248 12.890625
-3.528181 -1.960100 13.171875
-3.525484 -2.003116 13.460938
-3.521345 -2.047293 13.757812
-3.519531 -2.094959 14.078125
-3.515811 -2.143787 14.406250
-3.511905 -2.194941 14.750000
-3.509347 -2.249582 15.117188
-3.505952 -2.306548 15.500000
-3.501441 -2.365839 15.898438
-3.495536 -2.427455 16.312500
-3.492839 -2.494885 16.765625
-3.487909 -2.564639 17.234375
-3.483538 -2.639044 17.734375
-3.479167 -2.718099 18.265625
-3.471354 -2.799479 18.812500
-3.459821 -2.883184 19.375000
-3.344494 -2.883184 19.375000
-3.361979 -3.001767 20.171875
-3.347377 -3.099423 20.828125
-3.271763 -3.145926 21.140625
-3.431920 -3.431920 23.062500
-3.421875 -3.564453 23.953125
-3.414062 -3.710938 24.937500
-3.402716 -3.866723 25.984375
-3.392578 -4.038784 27.140625
-3.379836 -4.224795 28.390625
-3.366350 -4.429409 29.765625
-3.306362 -4.592169 30.859375
-3.121094 -4.589844 30.843750
-2.937500 -4.589844 30.843750
-2.753906 -4.589844 30.843750
-2.570312 -4.589844 30.843750
-2.386719 -4.589844 30.843750
-2.203125 -4.589844 30.843750
-2.019531 -4.589844 30.843750
-1.835007 -4.587519 30.828125
-1.651507 -4.587519 30.828125
-1.468006 -4.587519 30.828125
-1.284505 -4.587519 30.828125
-1.101004 -4.587519 30.828125
-0.917504 -4.587519 30.828125
-0.734003 -4.587519 30.828125
-0.550502 -4.587519 30.828125
-0.366815 -4.585194 30.812500
-0.183408 -4.585194 30.812500
0.000000 -4.585194 30.812500
0.183408 -4.585194 30.812500
0.366815 -4.585194 30.812500
0.550223 -4.585194 30.812500
0.733631 -4.585194 30.812500
0.916574 -4.582868 30.796875
1.099888 -4.582868 30.796875
1.283203 -4.582868 30.796875
1.466518 -4.582868 30.796875
1.649833 -4.582868 30.796875
1.833147 -4.582868 30.796875
2.016462 -4.582868 30.796875
2.199777 -4.582868 30.796875
2.381882 -4.580543 30.781250
2.565104 -4.580543 30.781250
2.748326 -4.580543 30.781250
2.931548 -4.580543 30.781250
3.114769 -4.580543 30.781250
3.297991 -4.580543 30.781250
3.481213 -4.580543 30.781250
3.664434 -4.580543 30.781250
3.845703 -4.578218 30.765625
4.028832 -4.578218 30.765625
4.211961 -4.578218 30.765625
4.395089 -4.578218 30.765625
4.578218 -4.578218 30.765625
4.761347 -4.578218 30.765625
4.944476 -4.578218 30.765625
5.125000 -4.575893 30.750000
5.308036 -4.575893 30.750000
5.491071 -4.575893 30.750000
5.674107 -4.575893 30.750000
5.857143 -4.575893 30.750000
6.040179 -4.575893 30.750000
6.223214 -4.575893 30.750000
6.406250 -4.575893 30.750000
6.585938 -4.573568 30.734375
6.768880 -4.573568 30.734375
6.951823 -4.573568 30.734375
5.458984 -3.499349 23.515625
5.450149 -3.406343 22.890625
5.445312 -3.320312 22.312500
5.441406 -3.238932 21.765625
5.434989 -3.159877 21.234375
5.430431 -3.085473 20.734375
5.424107 -3.013393 20.250000
5.420573 -2.945964 19.796875
5.416016 -2.880859 19.359375
5.415179 -2.820405 18.953125
5.409505 -2.759952 18.546875
5.403646 -2.701823 18.156250
5.402623 -2.648345 17.796875
5.397321 -2.594866 17.437500
5.392671 -2.543713 17.093750
5.393973 -2.497210 16.781250
5.386440 -2.448382 16.453125
5.385417 -2.404204 16.156250
5.383510 -2.361189 15.867188
5.380859 -2.319336 15.585938
5.377604 -2.278646 15.312500
5.170201 -2.154250 14.476562
5.168434 -2.118211 14.234375
5.166667 -2.083333 14.000000
5.165039 -2.049619 13.773438
5.160714 -2.015904 13.546875
5.159738 -1.984514 13.335938
5.177734 -1.961263 13.179688
5.256185 -1.961263 13.179688
5.334635 -1.961263 13.179688
5.355329 -1.940337 13.039062
5.367838 -1.917085 12.882812
5.444522 -1.917085 12.882812
5.521205 -1.917085 12.882812
5.594494 -1.915923 12.875000
5.671131 -1.915923 12.875000
5.747768 -1.915923 12.875000
5.824405 -1.915923 12.875000
5.901042 -1.915923 12.875000
5.977679 -1.915923 12.875000
6.054316 -1.915923 12.875000
6.130952 -1.915923 12.875000
6.207589 -1.915923 12.875000
6.280413 -1.914760 12.867188
6.357003 -1.914760 12.867188
6.433594 -1.914760 12.867188
6.510184 -1.914760 12.867188
6.586774 -1.914760 12.867188
6.663365 -1.914760 12.867188
6.739955 -1.914760 12.867188
6.816546 -1.914760 12.867188
6.893136 -1.914760 12.867188
6.965495 -1.913597 12.859375
7.042039 -1.913597 12.859375
7.118583 -1.913597 12.859375
7.195127 -1.913597 12.859375
7.271670 -1.913597 12.859375
7.348214 -1.913597 12.859375
7.424758 -1.913597 12.859375
7.501302 -1.913597 12.859375
7.577846 -1.913597 12.859375
7.649740 -1.912435 12.851562
7.726237 -1.912435 12.851562
7.802734 -1.912435 12.851562
7.879232 -1.912435 12.851562
7.955729 -1.912435 12.851562
8.032227 -1.912435 12.851562
8.108724 -1.912435 12.851562
8.185222 -1.912435 12.851562
8.261719 -1.912435 12.851562
8.338216 -1.912435 12.851562
8.409598 -1.911272 12.843750
8.486049 -1.911272 12.843750
8.562500 -1.911272 12.843750
8.638951 -1.911272 12.843750
8.715402 -1.911272 12.843750
8.791853 -1.911272 12.843750
8.868303 -1.911272 12.843750
8.944755 -1.911272 12.843750
9.021205 -1.911272 12.843750
9.092122 -1.910110 12.835938
9.168527 -1.910110 12.835938
9.244931 -1.910110 12.835938
9.321336 -1.910110 12.835938
9.397740 -1.910110 12.835938
9.474144 -1.910110 12.835938
9.550549 -1.910110 12.835938
9.626953 -1.910110 12.835938
9.703358 -1.910110 12.835938
9.773809 -1.908947 12.828125
9.850167 -1.908947 12.828125
9.926525 -1.908947 12.828125
10.002883 -1.908947 12.828125
10.079241 -1.908947 12.828125
10.155599 -1.908947 12.828125
10.231956 -1.908947 12.828125
10.308314 -1.908947 12.828125
19.049107 -3.501674 23.531250
19.049015 -3.476098 23.359375
19.046875 -3.450521 23.187500
19.055618 -3.427269 23.031250
19.049479 -3.401693 22.859375
19.041294 -3.376116 22.687500
19.044271 -3.352865 22.531250
19.045387 -3.329613 22.375000
19.044643 -3.306362 22.218750
19.042038 -3.283110 22.062500
19.037575 -3.259859 21.906250
19.031250 -3.236607 21.750000
19.036831 -3.215681 21.609375
19.026878 -3.192429 21.453125
19.029018 -3.171503 21.312500
19.029484 -3.150577 21.171875
19.028275 -3.129650 21.031250
19.025391 -3.108724 20.890625
19.020834 -3.087798 20.750000
19.029018 -3.069196 20.625000
19.021206 -3.048270 20.484375
19.026321 -3.029669 20.359375
19.015253 -3.008743 20.218750
19.017300 -2.990141 20.093750
19.017857 -2.971540 19.968750
19.016928 -2.952939 19.843750
19.014509 -2.934338 19.718750
19.010603 -2.915737 19.593750
19.020462 -2.899461 19.484375
19.013672 -2.880859 19.359375
19.005394 -2.862258 19.234375
19.011160 -2.845982 19.125000
-3.619141 -0.517020 3.619141
-3.618955 -0.520089 3.640625
-3.620443 -0.523438 3.664062
-3.619734 -0.526507 3.685547
-3.618769 -0.529576 3.707031
-3.619443 -0.532924 3.730469
-3.617955 -0.535993 3.751953
-3.618083 -0.539342 3.775391
-3.617932 -0.542690 3.798828
-3.617501 -0.546038 3.822266
-3.618629 -0.549665 3.847656
-3.617629 -0.553013 3.871094
-3.618164 -0.556641 3.896484
-3.616595 -0.559989 3.919922
-3.616536 -0.563616 3.945312
-3.616176 -0.567243 3.970703
-3.617280 -0.571150 3.998047
-3.616304 -0.574777 4.023438
-3.616769 -0.578683 4.050781
-3.613444 -0.582031 4.074219
-3.613281 -0.585938 4.101562
-3.612793 -0.589844 4.128906
-3.615374 -0.594308 4.160156
-3.614211 -0.598214 4.187500
-3.612723 -0.602121 4.214844
-3.614234 -0.606585 4.246094
-3.612072 -0.610491 4.273438
-3.612863 -0.614955 4.304688
-3.613281 -0.619420 4.335938
-3.613328 -0.623884 4.367188
-3.613002 -0.628348 4.398438
-3.612305 -0.632812 4.429688
-3.611235 -0.637277 4.460938
-3.609793 -0.641741 4.492188
-3.611096 -0.646763 4.527344
-3.608887 -0.651228 4.558594
-3.609375 -0.656250 4.593750
-3.609445 -0.661272 4.628906
-3.609096 -0.666295 4.664062
-3.608329 -0.671317 4.699219
-3.610119 -0.676897 4.738281
-3.608491 -0.681920 4.773438
-3.609375 -0.687500 4.812500
-3.606887 -0.692522 4.847656
-3.606864 -0.698103 4.886719
-3.606375 -0.703683 4.925781
-3.605422 -0.709263 4.964844
-3.606817 -0.715402 5.007812
-3.604911 -0.720982 5.046875
-3.605306 -0.727121 5.089844
-3.605190 -0.733259 5.132812
-3.604562 -0.739397 5.175781
-3.603423 -0.745536 5.218750
-3.604446 -0.752232 5.265625
-3.602260 -0.758371 5.308594
-3.602190 -0.765067 5.355469
-3.601562 -0.771763 5.402344
-3.602957 -0.779018 5.453125
-3.601191 -0.785714 5.500000
-3.601400 -0.792969 5.550781
-3.601004 -0.800223 5.601562
-3.600005 -0.807478 5.652344
-3.598400 -0.814732 5.703125
-3.598633 -0.822545 5.757812
-3.598214 -0.830357 5.812500
-3.597145 -0.838170 5.867188
-3.597796 -0.846540 5.925781
-3.597749 -0.854911 5.984375
-3.597005 -0.863281 6.042969
-3.595564 -0.871652 6.101562
-3.595703 -0.880580 6.164062
-3.595098 -0.889509 6.226562
-3.593750 -0.898438 6.289062
-3.593866 -0.907924 6.355469
-3.593192 -0.917411 6.421875
-3.591727 -0.926897 6.488281
-3.591611 -0.936942 6.558594
-3.590657 -0.946987 6.628906
-3.590960 -0.957589 6.703125
-3.590379 -0.968192 6.777344
-3.588914 -0.978795 6.851562
-3.588588 -0.989955 6.929688
-3.587332 -1.001116 7.007812
-3.587123 -1.012835 7.089844
-3.585938 -1.024554 7.171875
-3.585705 -1.036830 7.257812
-3.584449 -1.049107 7.343750
-3.582171 -1.061384 7.429688
-3.582589 -1.074777 7.523438
-3.581892 -1.088170 7.617188
-3.580078 -1.101562 7.710938
-3.578939 -1.115513 7.808594
-3.578404 -1.130022 7.910156
-3.578404 -1.145089 8.015625
-3.575428 -1.159598 8.117188
-3.574637 -1.175223 8.226562
-3.572545 -1.190848 8.335938
-3.572452 -1.207589 8.453125
-3.570964 -1.224330 8.570312
-3.571289 -1.242188 8.695312
-3.570127 -1.260045 8.820312
-3.567476 -1.277902 8.945312
-3.566406 -1.296875 9.078125
-3.563756 -1.315848 9.210938
-3.562500 -1.335938 9.351562
-3.562500 -1.357143 9.500000
-3.560733 -1.378348 9.648438
-3.560035 -1.400670 9.804688
-3.557478 -1.422991 9.960938
-3.555804 -1.446429 10.125000
-3.554873 -1.470982 10.296875
-3.554548 -1.496652 10.476562
-3.552083 -1.522321 10.656250
-3.550037 -1.549107 10.843750
-3.548270 -1.577009 11.039062
-3.546643 -1.606027 11.242188
-3.545015 -1.636161 11.453125
-3.540876 -1.666295 11.664062
-3.538877 -1.698661 11.890625
-3.536458 -1.732143 12.125000
-3.535714 -1.767857 12.375000
-3.531994 -1.803571 12.625000
-3.529576 -1.841518 12.890625
-3.528181 -1.881696 13.171875
-3.525484 -1.922991 13.460938
-3.521345 -1.965402 13.757812
-3.519531 -2.011161 14.078125
-3.515811 -2.058036 14.406250
-3.511905 -2.107143 14.750000
-3.509347 -2.159598 15.117188
-3.505952 -2.214286 15.500000
-3.501441 -2.271205 15.898438
-3.495536 -2.330357 16.312500
-3.492839 -2.395089 16.765625
-3.487909 -2.462054 17.234375
-3.483538 -2.533482 17.734375
-3.479167 -2.609375 18.265625
-3.471354 -2.687500 18.812500
-3.459821 -2.767857 19.375000
-3.344494 -2.767857 19.375000
-3.361979 -2.881696 20.171875
-3.354911 -2.982143 20.875000
-3.339472 -3.082589 21.578125
-3.264509 -3.133929 21.937500
-3.421875 -3.421875 23.953125
-3.414062 -3.562500 24.937500
-3.402716 -3.712054 25.984375
-3.392578 -3.877232 27.140625
-3.379836 -4.055804 28.390625
-3.366350 -4.252232 29.765625
-3.304688 -4.406250 30.843750
-3.121094 -4.406250 30.843750
-2.937500 -4.406250 30.843750
-2.753906 -4.406250 30.843750
-2.570312 -4.406250 30.843750
-2.386719 -4.406250 30.843750
-2.203125 -4.406250 30.843750
-2.019531 -4.406250 30.843750
-1.835007 -4.404018 30.828125
-1.651507 -4.404018 30.828125
-1.468006 -4.404018 30.828125
-1.284505 -4.404018 30.828125
-1.101004 -4.404018 30.828125
-0.917504 -4.404018 30.828125
-0.734003 -4.404018 30.828125
-0.550502 -4.404018 30.828125
-0.366815 -4.401786 30.812500
-0.183408 -4.401786 30.812500
0.000000 -4.401786 30.812500
0.183408 -4.401786 30.812500
0.366815 -4.401786 30.812500
0.550223 -4.401786 30.812500
0.733631 -4.401786 30.812500
0.916574 -4.399554 30.796875
1.099888 -4.399554 30.796875
1.283203 -4.399554 30.796875
1.466518 -4.399554 30.796875
1.649833 -4.399554 30.796875
1.833147 -4.399554 30.796875
2.016462 -4.399554 30.796875
2.199777 -4.399554 30.796875
2.381882 -4.397321 30.781250
2.565104 -4.397321 30.781250
2.748326 -4.397321 30.781250
2.931548 -4.397321 30.781250
3.114769 -4.397321 30.781250
3.297991 -4.397321 30.781250
3.481213 -4.397321 30.781250
3.664434 -4.397321 30.781250
3.845703 -4.395089 30.765625
4.028832 -4.395089 30.765625
4.211961 -4.395089 30.765625
4.395089 -4.395089 30.765625
4.578218 -4.395089 30.765625
4.761347 -4.395089 30.765625
4.944476 -4.395089 30.765625
5.125000 -4.392857 30.750000
5.308036 -4.392857 30.750000
5.491071 -4.392857 30.750000
5.674107 -4.392857 30.750000
5.857143 -4.392857 30.750000
6.040179 -4.392857 30.750000
6.223214 -4.392857 30.750000
6.406250 -4.392857 30.750000
6.585938 -4.390625 30.734375
6.768880 -4.390625 30.734375
6.951823 -4.390625 30.734375
5.458984 -3.359375 23.515625
5.450149 -3.270089 22.890625
5.445312 -3.187500 22.312500
5.441406 -3.109375 21.765625
5.434989 -3.033482 21.234375
5.430431 -2.962054 20.734375
5.424107 -2.892857 20.250000
5.420573 -2.828125 19.796875
5.416016 -2.765625 19.359375
5.415179 -2.707589 18.953125
5.409505 -2.649554 18.546875
5.403646 -2.593750 18.156250
5.402623 -2.542411 17.796875
5.397321 -2.491071 17.437500
5.392671 -2.441964 17.093750
5.393973 -2.397321 16.781250
5.386440 -2.350446 16.453125
5.385417 -2.308036 16.156250
5.187360 -2.184152 15.289062
5.175874 -2.141741 14.992188
5.171828 -2.103795 14.726562
5.170201 -2.068080 14.476562
5.168434 -2.033482 14.234375
5.172433 -2.002232 14.015625
5.220703 -1.988839 13.921875
5.223214 -1.958705 13.710938
5.159738 -1.905134 13.335938
5.177734 -1.882812 13.179688
5.256185 -1.882812 13.179688
5.334635 -1.882812 13.179688
5.355329 -1.862723 13.039062
5.367838 -1.840402 12.882812
5.444522 -1.840402 12.882812
5.521205 -1.840402 12.882812
5.594494 -1.839286 12.875000
5.671131 -1.839286 12.875000
5.747768 -1.839286 12.875000
5.824405 -1.839286 12.875000
5.901042 -1.839286 12.875000
5.977679 -1.839286 12.875000
6.054316 -1.839286 12.875000
6.130952 -1.839286 12.875000
6.207589 -1.839286 12.875000
6.280413 -1.838170 12.867188
6.357003 -1.838170 12.867188
6.433594 -1.838170 12.867188
6.510184 -1.838170 12.867188
6.586774 -1.838170 12.867188
6.663365 -1.838170 12.867188
6.739955 -1.838170 12.867188
6.816546 -1.838170 12.867188
6.893136 -1.838170 12.867188
6.965495 -1.837054 12.859375
7.042039 -1.837054 12.859375
7.118583 -1.837054 12.859375
7.195127 -1.837054 12.859375
7.271670 -1.837054 12.859375
7.348214 -1.837054 12.859375
7.424758 -1.837054 12.859375
7.501302 -1.837054 12.859375
7.577846 -1.837054 12.859375
7.649740 -1.835938 12.851562
7.726237 -1.835938 12.851562
7.802734 -1.835938 12.851562
7.879232 -1.835938 12.851562
7.955729 -1.835938 12.851562
8.032227 -1.835938 12.851562
8.108724 -1.835938 12.851562
8.185222 -1.835938 12.851562
8.261719 -1.835938 12.851562
8.333147 -1.834821 12.843750
8.409598 -1.834821 12.843750
8.486049 -1.834821 12.843750
8.562500 -1.834821 12.843750
8.638951 -1.834821 12.843750
8.715402 -1.834821 12.843750
8.791853 -1.834821 12.843750
8.868303 -1.834821 12.843750
8.944755 -1.834821 12.843750
9.021205 -1.834821 12.843750
9.092122 -1.833705 12.835938
9.168527 -1.833705 12.835938
9.244931 -1.833705 12.835938
9.321336 -1.833705 12.835938
9.397740 -1.833705 12.835938
9.474144 -1.833705 12.835938
9.550549 -1.833705 12.835938
9.626953 -1.833705 12.835938
9.703358 -1.833705 12.835938
9.773809 -1.832589 12.828125
9.850167 -1.832589 12.828125
9.926525 -1.832589 12.828125
10.002883 -1.832589 12.828125
10.079241 -1.832589 12.828125
10.155599 -1.832589 12.828125
10.231956 -1.832589 12.828125
10.308314 -1.832589 12.828125
19.049107 -3.361607 23.531250
19.049015 -3.337054 23.359375
19.046875 -3.312500 23.187500
19.055618 -3.290179 23.031250
19.049479 -3.265625 22.859375
19.041294 -3.241071 22.687500
19.044271 -3.218750 22.531250
19.045387 -3.196429 22.375000
19.044643 -3.174107 22.218750
19.042038 -3.151786 22.062500
19.037575 -3.129464 21.906250
19.031250 -3.107143 21.750000
19.036831 -3.087054 21.609375
19.026878 -3.064732 21.453125
19.029018 -3.044643 21.312500
19.029484 -3.024554 21.171875
19.028275 -3.004464 21.031250
19.025391 -2.984375 20.890625
19.020834 -2.964286 20.750000
19.029018 -2.946429 20.625000
19.021206 -2.926339 20.484375
19.026321 -2.908482 20.359375
19.015253 -2.888393 20.218750
19.017300 -2.870536 20.093750
19.017857 -2.852679 19.968750
19.016928 -2.834821 19.843750
19.014509 -2.816964 19.718750
19.010603 -2.799107 19.593750
19.020462 -2.783482 19.484375
19.013672 -2.765625 19.359375
19.005394 -2.747768 19.234375
19.011160 -2.732143 19.125000
-3.619141 -0.495478 3.619141
-3.618955 -0.498419 3.640625
-3.620443 -0.501628 3.664062
-3.619734 -0.504569 3.685547
-3.618769 -0.507510 3.707031
-3.619443 -0.510719 3.730469
-3.617955 -0.513660 3.751953
-3.618083 -0.516869 3.775391
-3.617932 -0.520078 3.798828
-3.617501 -0.523286 3.822266
-3.618629 -0.526762 3.847656
-3.617629 -0.529971 3.871094
-3.618164 -0.533447 3.896484
-3.616595 -0.536656 3.919922
-3.616536 -0.540132 3.945312
-3.616176 -0.543608 3.970703
-3.617280 -0.547352 3.998047
-3.616304 -0.550828 4.023438
-3.616769 -0.554571 4.050781
-3.613444 -0.557780 4.074219
-3.613281 -0.561523 4.101562
-3.612793 -0.565267 4.128906
-3.615374 -0.569545 4.160156
-3.614211 -0.573289 4.187500
-3.612723 -0.577032 4.214844
-3.614234 -0.581310 4.246094
-3.612072 -0.585054 4.273438
-3.612863 -0.589332 4.304688
-3.613281 -0.593610 4.335938
-3.613328 -0.597889 4.367188
-3.613002 -0.602167 4.398438
-3.612305 -0.606445 4.429688
-3.611235 -0.610724 4.460938
-3.609793 -0.615002 4.492188
-3.611096 -0.619815 4.527344
-3.608887 -0.624093 4.558594
-3.609375 -0.628906 4.593750
-3.609445 -0.633719 4.628906
-3.609096 -0.638532 4.664062
-3.608329 -0.643345 4.699219
-3.610119 -0.648693 4.738281
-3.608491 -0.653506 4.773438
-3.609375 -0.658854 4.812500
-3.606887 -0.663667 4.847656
-3.606864 -0.669015 4.886719
-3.606375 -0.674363 4.925781
-3.605422 -0.679711 4.964844
-3.606817 -0.685593 5.007812
-3.604911 -0.690941 5.046875
-3.605306 -0.696824 5.089844
-3.605190 -0.702706 5.132812
-3.604562 -0.708589 5.175781
-3.603423 -0.714472 5.218750
-3.604446 -0.720889 5.265625
-3.602260 -0.726772 5.308594
-3.602190 -0.733189 5.355469
-3.601562 -0.739607 5.402344
-3.602957 -0.746559 5.453125
-3.601191 -0.752976 5.500000
-3.601400 -0.759928 5.550781
-3.601004 -0.766881 5.601562
-3.600005 -0.773833 5.652344
-3.598400 -0.780785 5.703125
-3.598633 -0.788272 5.757812
-3.598214 -0.795759 5.812500
-3.597145 -0.803246 5.867188
-3.597796 -0.811268 5.925781
-3.597749 -0.819289 5.984375
-3.597005 -0.827311 6.042969
-3.595564 -0.835333 6.101562
-3.595703 -0.843890 6.164062
-3.595098 -0.852446 6.226562
-3.593750 -0.861003 6.289062
-3.593866 -0.870094 6.355469
-3.593192 -0.879185 6.421875
-3.591727 -0.888277 6.488281
-3.591611 -0.897903 6.558594
-3.590657 -0.907529 6.628906
-3.590960 -0.917690 6.703125
-3.590379 -0.927851 6.777344
-3.588914 -0.938012 6.851562
-3.588588 -0.948707 6.929688
-3.587332 -0.959403 7.007812
-3.587123 -0.970633 7.089844
-3.585938 -0.981864 7.171875
-3.585705 -0.993629 7.257812
-3.584449 -1.005394 7.343750
-3.582171 -1.017160 7.429688
-3.582589 -1.029994 7.523438
-3.581892 -1.042829 7.617188
-3.580078 -1.055664 7.710938
-3.578939 -1.069034 7.808594
-3.578404 -1.082938 7.910156
-3.578404 -1.097377 8.015625
-3.575428 -1.111282 8.117188
-3.574637 -1.126256 8.226562
-3.572545 -1.141230 8.335938
-3.572452 -1.157273 8.453125
-3.570964 -1.173317 8.570312
-3.571289 -1.190430 8.695312
-3.570127 -1.207543 8.820312
-3.567476 -1.224656 8.945312
-3.566406 -1.242839 9.078125
-3.563756 -1.261021 9.210938
-3.562500 -1.280273 9.351562
-3.562500 -1.300595 9.500000
-3.560733 -1.320917 9.648438
-3.560035 -1.342308 9.804688
-3.557478 -1.363700 9.960938
-3.555804 -1.386161 10.125000
-3.554873 -1.409691 10.296875
-3.554548 -1.434291 10.476562
-3.552083 -1.458891 10.656250
-3.550037 -1.484561 10.843750
-3.548270 -1.511300 11.039062
-3.546643 -1.539109 11.242188
-3.545015 -1.567987 11.453125
-3.540876 -1.596866 11.664062
-3.538877 -1.627883 11.890625
-3.536458 -1.659970 12.125000
-3.535714 -1.694196 12.375000
-3.531994 -1.728423 12.625000
-3.529576 -1.764788 12.890625
-3.528181 -1.803292 13.171875
-3.525484 -1.842866 13.460938
-3.521345 -1.883510 13.757812
-3.519531 -1.927362 14.078125
-3.515811 -1.972284 14.406250
-3.511905 -2.019345 14.750000
-3.509347 -2.069615 15.117188
-3.505952 -2.122024 15.500000
-3.501441 -2.176572 15.898438
-3.495536 -2.233259 16.312500
-3.492839 -2.295294 16.765625
-3.487909 -2.359468 17.234375
-3.483538 -2.427920 17.734375
-3.479167 -2.500651 18.265625
-3.471354 -2.575521 18.812500
-3.459821 -2.652530 19.375000
-3.344494 -2.652530 19.375000
-3.361979 -2.761626 20.171875
-3.354911 -2.857887 20.875000
-3.349144 -2.962705 21.640625
-3.331938 -3.065383 22.390625
-3.263393 -3.127418 22.843750
-3.414062 -3.414062 24.937500
-3.402716 -3.557385 25.984375
-3.392578 -3.715681 27.140625
-3.379836 -3.886812 28.390625
-3.366350 -4.075056 29.765625
-3.304688 -4.222656 30.843750
-3.121094 -4.222656 30.843750
-2.937500 -4.222656 30.843750
-2.753906 -4.222656 30.843750
-2.570312 -4.222656 30.843750
-2.386719 -4.222656 30.843750
-2.203125 -4.222656 30.843750
-2.019531 -4.222656 30.843750
-1.835007 -4.220517 30.828125
-1.651507 -4.220517 30.828125
-1.468006 -4.220517 30.828125
-1.284505 -4.220517 30.828125
-1.101004 -4.220517 30.828125
-0.917504 -4.220517 30.828125
-0.734003 -4.220517 30.828125
-0.550502 -4.220517 30.828125
-0.366815 -4.218378 30.812500
-0.183408 -4.218378 30.812500
0.000000 -4.218378 30.812500
0.183408 -4.218378 30.812500
0.366815 -4.218378 30.812500
0.550223 -4.218378 30.812500
0.733631 -4.218378 30.812500
0.916574 -4.216239 30.796875
1.099888 -4.216239 30.796875
1.283203 -4.216239 30.796875
1.466518 -4.216239 30.796875
1.649833 -4.216239 30.796875
1.833147 -4.216239 30.796875
2.016462 -4.216239 30.796875
2.199777 -4.216239 30.796875
2.381882 -4.214100 30.781250
2.565104 -4.214100 30.781250
2.748326 -4.214100 30.781250
2.931548 -4.214100 30.781250
3.114769 -4.214100 30.781250
3.297991 -4.214100 30.781250
3.481213 -4.214100 30.781250
3.662574 -4.211961 30.765625
3.845703 -4.211961 30.765625
4.028832 -4.211961 30.765625
4.211961 -4.211961 30.765625
4.395089 -4.211961 30.765625
4.578218 -4.211961 30.765625
4.761347 -4.211961 30.765625
4.944476 -4.211961 30.765625
5.125000 -4.209821 30.750000
5.308036 -4.209821 30.750000
5.491071 -4.209821 30.750000
5.674107 -4.209821 30.750000
5.857143 -4.209821 30.750000
6.040179 -4.209821 30.750000
6.223214 -4.209821 30.750000
6.406250 -4.209821 30.750000
6.585938 -4.207682 30.734375
6.768880 -4.207682 30.734375
6.951823 -4.207682 30.734375
5.458984 -3.219401 23.515625
5.450149 -3.133836 22.890625
5.445312 -3.054688 22.312500
5.441406 -2.979818 21.765625
5.434989 -2.907087 21.234375
5.430431 -2.838635 20.734375
5.424107 -2.772321 20.250000
5.420573 -2.710286 19.796875
5.416016 -2.650391 19.359375
5.415179 -2.594773 18.953125
5.409505 -2.539155 18.546875
5.403646 -2.485677 18.156250
5.402623 -2.436477 17.796875
5.397321 -2.387277 17.437500
5.392671 -2.340216 17.093750
5.393973 -2.297433 16.781250
5.184384 -2.168015 15.835938
5.179688 -2.127372 15.539062
5.179409 -2.089937 15.265625
5.175874 -2.052502 14.992188
5.171828 -2.016137 14.726562
5.203683 -1.994745 14.570312
5.230841 -1.972284 14.406250
5.227213 -1.939128 14.164062
5.226562 -1.908110 13.937500
5.223214 -1.877093 13.710938
5.159738 -1.825753 13.335938
5.177734 -1.804362 13.179688
5.256185 -1.804362 13.179688
5.334635 -1.804362 13.179688
5.355329 -1.785110 13.039062
5.367838 -1.763718 12.882812
5.444522 -1.763718 12.882812
5.521205 -1.763718 12.882812
5.594494 -1.762649 12.875000
5.671131 -1.762649 12.875000
5.747768 -1.762649 12.875000
5.824405 -1.762649 12.875000
5.901042 -1.762649 12.875000
5.977679 -1.762649 12.875000
6.054316 -1.762649 12.875000
6.130952 -1.762649 12.875000
6.207589 -1.762649 12.875000
6.280413 -1.761579 12.867188
6.357003 -1.761579 12.867188
6.433594 -1.761579 12.867188
6.510184 -1.761579 12.867188
6.586774 -1.761579 12.867188
6.663365 -1.761579 12.867188
6.739955 -1.761579 12.867188
6.816546 -1.761579 12.867188
6.893136 -1.761579 12.867188
6.965495 -1.760510 12.859375
7.042039 -1.760510 12.859375
7.118583 -1.760510 12.859375
7.195127 -1.760510 12.859375
7.271670 -1.760510 12.859375
7.348214 -1.760510 12.859375
7.424758 -1.760510 12.859375
7.501302 -1.760510 12.859375
7.577846 -1.760510 12.859375
7.649740 -1.759440 12.851562
7.726237 -1.759440 12.851562
7.802734 -1.759440 12.851562
7.879232 -1.759440 12.851562
7.955729 -1.759440 12.851562
8.032227 -1.759440 12.851562
8.108724 -1.759440 12.851562
8.185222 -1.759440 12.851562
8.261719 -1.759440 12.851562
8.333147 -1.758371 12.843750
8.409598 -1.758371 12.843750
8.486049 -1.758371 12.843750
8.562500 -1.758371 12.843750
8.638951 -1.758371 12.843750
8.715402 -1.758371 12.843750
8.791853 -1.758371 12.843750
8.868303 -1.758371 12.843750
8.944755 -1.758371 12.843750
9.021205 -1.758371 12.843750
9.092122 -1.757301 12.835938
9.168527 -1.757301 12.835938
9.244931 -1.757301 12.835938
9.321336 -1.757301 12.835938
9.397740 -1.757301 12.835938
9.474144 -1.757301 12.835938
9.550549 -1.757301 12.835938
9.626953 -1.757301 12.835938
9.703358 -1.757301 12.835938
9.773809 -1.756231 12.828125
9.850167 -1.756231 12.828125
9.926525 -1.756231 12.828125
10.002883 -1.756231 12.828125
10.079241 -1.756231 12.828125
10.155599 -1.756231 12.828125
10.231956 -1.756231 12.828125
10.308314 -1.756231 12.828125
19.049107 -3.221540 23.531250
19.049015 -3.198010 23.359375
19.046875 -3.174479 23.187500
19.055618 -3.153088 23.031250
19.049479 -3.129557 22.859375
19.041294 -3.106027 22.687500
19.044271 -3.084635 22.531250
19.045387 -3.063244 22.375000
19.044643 -3.041853 22.218750
19.042038 -3.020461 22.062500
19.037575 -2.999070 21.906250
19.031250 -2.977679 21.750000
19.036831 -2.958426 21.609375
19.026878 -2.937035 21.453125
19.029018 -2.917783 21.312500
19.029484 -2.898530 21.171875
19.028275 -2.879278 21.031250
19.025391 -2.860026 20.890625
19.020834 -2.840774 20.750000
19.029018 -2.823661 20.625000
19.021206 -2.804409 20.484375
19.026321 -2.787295 20.359375
19.015253 -2.768043 20.218750
19.017300 -2.750930 20.093750
19.017857 -2.733817 19.968750
19.016928 -2.716704 19.843750
19.014509 -2.699591 19.718750
19.010603 -2.682478 19.593750
19.020462 -2.667504 19.484375
19.013672 -2.650391 19.359375
19.005394 -2.633277 19.234375
19.011160 -2.618304 19.125000
-3.619141 -0.473935 3.619141
-3.618955 -0.476749 3.640625
-3.620443 -0.479818 3.664062
-3.619734 -0.482631 3.685547
-3.618769 -0.485445 3.707031
-3.619443 -0.488514 3.730469
-3.617955 -0.491327 3.751953
-3.618083 -0.494396 3.775391
-3.617932 -0.497466 3.798828
-3.617501 -0.500535 3.822266
-3.618629 -0.503860 3.847656
-3.617629 -0.506929 3.871094
-3.618164 -0.510254 3.896484
-3.616595 -0.513323 3.919922
-3.616536 -0.516648 3.945312
-3.616176 -0.519973 3.970703
-3.617280 -0.523554 3.998047
-3.616304 -0.526879 4.023438
-3.616769 -0.530459 4.050781
-3.613444 -0.533529 4.074219
-3.613281 -0.537109 4.101562
-3.612793 -0.540690 4.128906
-3.615374 -0.544782 4.160156
-3.614211 -0.548363 4.187500
-3.612723 -0.551944 4.214844
-3.614234 -0.556036 4.246094
-3.612072 -0.559617 4.273438
-3.612863 -0.563709 4.304688
-3.613281 -0.567801 4.335938
-3.613328 -0.571894 4.367188
-3.613002 -0.575986 4.398438
-3.612305 -0.580078 4.429688
-3.611235 -0.584170 4.460938
-3.609793 -0.588263 4.492188
-3.611096 -0.592866 4.527344
-3.608887 -0.596959 4.558594
-3.609375 -0.601562 4.593750
-3.609445 -0.606166 4.628906
-3.609096 -0.610770 4.664062
-3.608329 -0.615374 4.699219
-3.610119 -0.620489 4.738281
-3.608491 -0.625093 4.773438
-3.609375 -0.630208 4.812500
-3.606887 -0.634812 4.847656
-3.606864 -0.639927 4.886719
-3.606375 -0.645043 4.925781
-3.605422 -0.650158 4.964844
-3.606817 -0.655785 5.007812
-3.604911 -0.660900 5.046875
-3.605306 -0.666527 5.089844
-3.605190 -0.672154 5.132812
-3.604562 -0.677781 5.175781
-3.603423 -0.683408 5.218750
-3.604446 -0.689546 5.265625
-3.602260 -0.695173 5.308594
-3.602190 -0.701311 5.355469
-3.601562 -0.707450 5.402344
-3.602957 -0.714100 5.453125
-3.601191 -0.720238 5.500000
-3.601400 -0.726888 5.550781
-3.601004 -0.733538 5.601562
-3.600005 -0.740188 5.652344
-3.598400 -0.746838 5.703125
-3.598633 -0.753999 5.757812
-3.598214 -0.761161 5.812500
-3.597145 -0.768322 5.867188
-3.597796 -0.775995 5.925781
-3.597749 -0.783668 5.984375
-3.597005 -0.791341 6.042969
-3.595564 -0.799014 6.101562
-3.595703 -0.807199 6.164062
-3.595098 -0.815383 6.226562
-3.593750 -0.823568 6.289062
-3.593866 -0.832264 6.355469
-3.593192 -0.840960 6.421875
-3.591727 -0.849656 6.488281
-3.591611 -0.858863 6.558594
-3.590657 -0.868071 6.628906
-3.590960 -0.877790 6.703125
-3.590379 -0.887509 6.777344
-3.588914 -0.897228 6.851562
-3.588588 -0.907459 6.929688
-3.587332 -0.917690 7.007812
-3.587123 -0.928432 7.089844
-3.585938 -0.939174 7.171875
-3.585705 -0.950428 7.257812
-3.584449 -0.961682 7.343750
-3.582171 -0.972935 7.429688
-3.582589 -0.985212 7.523438
-3.581892 -0.997489 7.617188
-3.580078 -1.009766 7.710938
-3.578939 -1.022554 7.808594
-3.578404 -1.035854 7.910156
-3.578404 -1.049665 8.015625
-3.575428 -1.062965 8.117188
-3.574637 -1.077288 8.226562
-3.572545 -1.091611 8.335938
-3.572452 -1.106957 8.453125
-3.570964 -1.122303 8.570312
-3.571289 -1.138672 8.695312
-3.570127 -1.155041 8.820312
-3.567476 -1.171410 8.945312
-3.566406 -1.188802 9.078125
-3.563756 -1.206194 9.210938
-3.562500 -1.224609 9.351562
-3.562500 -1.244048 9.500000
-3.560733 -1.263486 9.648438
-3.560035 -1.283947 9.804688
-3.557478 -1.304408 9.960938
-3.555804 -1.325893 10.125000
-3.554873 -1.348400 10.296875
-3.554548 -1.371931 10.476562
-3.552083 -1.395461 10.656250
-3.550037 -1.420015 10.843750
-3.548270 -1.445592 11.039062
-3.546643 -1.472191 11.242188
-3.545015 -1.499814 11.453125
-3.540876 -1.527437 11.664062
-3.538877 -1.557106 11.890625
-3.536458 -1.587798 12.125000
-3.535714 -1.620536 12.375000
-3.531994 -1.653274 12.625000
-3.529576 -1.688058 12.890625
-3.528181 -1.724888 13.171875
-3.525484 -1.762742 13.460938
-3.521345 -1.801618 13.757812
-3.519531 -1.843564 14.078125
-3.515811 -1.886533 14.406250
-3.511905 -1.931548 14.750000
-3.509347 -1.979632 15.117188
-3.505952 -2.029762 15.500000
-3.501441 -2.081938 15.898438
-3.495536 -2.136161 16.312500
-3.492839 -2.195498 16.765625
-3.487909 -2.256882 17.234375
-3.483538 -2.322359 17.734375
-3.479167 -2.391927 18.265625
-3.471354 -2.463542 18.812500
-3.459821 -2.537202 19.375000
-3.344494 -2.537202 19.375000
-3.361979 -2.641555 20.171875
-3.354911 -2.733631 20.875000
-3.349144 -2.833891 21.640625
-3.341239 -2.940290 22.453125
-3.323661 -3.046689 23.265625
-3.270740 -3.128534 23.890625
-3.402716 -3.402716 25.984375
-3.392578 -3.554129 27.140625
-3.379836 -3.717820 28.390625
-3.366350 -3.897879 29.765625
-3.304688 -4.039062 30.843750
-3.121094 -4.039062 30.843750
-2.937500 -4.039062 30.843750
-2.753906 -4.039062 30.843750
-2.570312 -4.039062 30.843750
-2.386719 -4.039062 30.843750
-2.203125 -4.039062 30.843750
-2.019531 -4.039062 30.843750
-1.835007 -4.037016 30.828125
-1.651507 -4.037016 30.828125
-1.468006 -4.037016 30.828125
-1.284505 -4.037016 30.828125
-1.101004 -4.037016 30.828125
-0.917504 -4.037016 30.828125
-0.734003 -4.037016 30.828125
-0.550223 -4.034970 30.812500
-0.366815 -4.034970 30.812500
-0.183408 -4.034970 30.812500
0.000000 -4.034970 30.812500
0.183408 -4.034970 30.812500
0.366815 -4.034970 30.812500
0.550223 -4.034970 30.812500
0.733631 -4.034970 30.812500
0.916574 -4.032924 30.796875
1.099888 -4.032924 30.796875
1.283203 -4.032924 30.796875
1.466518 -4.032924 30.796875
1.649833 -4.032924 30.796875
1.833147 -4.032924 30.796875
2.016462 -4.032924 30.796875
2.199777 -4.032924 30.796875
2.381882 -4.030878 30.781250
2.565104 -4.030878 30.781250
2.748326 -4.030878 30.781250
2.931548 -4.030878 30.781250
3.114769 -4.030878 30.781250
3.297991 -4.030878 30.781250
3.481213 -4.030878 30.781250
3.662574 -4.028832 30.765625
3.845703 -4.028832 30.765625
4.028832 -4.028832 30.765625
4.211961 -4.028832 30.765625
4.395089 -4.028832 30.765625
4.578218 -4.028832 30.765625
4.761347 -4.028832 30.765625
4.944476 -4.028832 30.765625
5.125000 -4.026786 30.750000
5.308036 -4.026786 30.750000
5.491071 -4.026786 30.750000
5.674107 -4.026786 30.750000
5.857143 -4.026786 30.750000
6.040179 -4.026786 30.750000
6.223214 -4.026786 30.750000
6.406250 -4.026786 30.750000
6.585938 -4.024740 30.734375
6.768880 -4.024740 30.734375
6.951823 -4.024740 30.734375
5.458984 -3.079427 23.515625
5.450149 -2.997582 22.890625
5.445312 -2.921875 22.312500
5.441406 -2.850260 21.765625
5.434989 -2.780692 21.234375
5.430431 -2.715216 20.734375
5.424107 -2.651786 20.250000
5.420573 -2.592448 19.796875
5.416016 -2.535156 19.359375
5.415179 -2.481957 18.953125
5.409505 -2.428757 18.546875
5.403646 -2.377604 18.156250
5.402623 -2.330543 17.796875
5.397321 -2.283482 17.437500
5.392671 -2.238467 17.093750
5.393973 -2.197545 16.781250
5.184384 -2.073754 15.835938
5.182292 -2.035900 15.546875
5.179409 -1.999070 15.265625
5.186663 -1.967355 15.023438
5.234933 -1.952009 14.906250
5.231585 -1.918248 14.648438
5.230841 -1.886533 14.406250
5.227213 -1.854818 14.164062
5.226562 -1.825149 13.937500
5.223214 -1.795480 13.710938
5.220191 -1.766834 13.492188
5.177734 -1.725911 13.179688
5.256185 -1.725911 13.179688
5.334635 -1.725911 13.179688
